50683
33.253 -34.8513 166.752
38.0026 -34.9173 167.133
35.1507 -31.2272 166.433
37.5398 -32.4746 166.223
41.0018 -31.496 166.137
48.3079 -31.7999 167.181
53.7406 -30.5553 167.666
60.1916 -27.5947 167.113
-182.943 -26.8912 167.638
-184.693 -25.7169 167.787
-177.819 -25.867 168.111
-186.989 -24.7774 165.632
-173.13 -23.6982 167.875
-154.829 -22.7443 167.505
-166.706 -24.0573 166.439
-151.107 -22.7126 166.466
182.099 -24.3813 168.426
39.9727 -22.0591 166.6
75.7059 -19.4837 164.893
176.586 -21.7091 166.982
-188.074 -21.7707 166.486
-149.638 -21.1932 167.408
171.353 -18.7316 165.534
44.3363 -17.2124 165.252
-187.078 -17.5901 165.55
85.477 -15.1148 165.749
-146.778 -15.9193 166.896
221.701 -14.5336 166.922
-148.914 -13.5459 166.13
40.797 -15.0239 167.884
159.362 -13.2117 166.771
221.161 -12.3665 167.085
-149.306 -10.4081 167.513
97.647 -10.1322 166.988
-175.213 -7.2495 169.581
-171.605 -9.32899 166.374
-156.024 -8.37638 166.238
-152.263 -7.55605 169.012
189.562 -8.65434 167.729
-160.089 -8.41096 165.368
187.188 -5.52446 165.785
193.029 -6.58707 166.363
198.997 -5.76234 166.113
201.436 -6.95463 167.221
202.648 -3.26612 164.817
206.04 -5.73692 167.054
223.518 -5.81048 166.336
107.869 -4.44392 165.6
209.931 -5.33401 167.488
129.764 -4.63387 168.437
175.679 -3.94546 166.532
44.3234 -4.72265 167.044
124.529 -1.35525 164.693
-15.8006 -35.201 255.709
-15.1942 -37.0514 255.678
-11.6644 -37.7821 255.875
-7.87672 -40.8491 254.683
-7.6358 -42.5497 255.181
161.246 0.042168 167.773
151.751 6.8057 166.634
149.107 9.19666 166.483
147.474 13.3817 165.702
47.5671 11.0006 166.164
48.0895 22.7684 167.385
129.376 27.9466 167.454
126.597 30.212 167.896
128.545 31.8981 166.609
126.422 36.6916 166.897
119.875 47.0451 167.177
49.3157 48.951 167.489
119.127 49.1588 167.292
49.4642 51.4552 166.478
118.202 52.4069 167.16
49.0345 56.9337 167.406
116.434 61.0675 166.455
112.646 63.764 166.728
107.01 64.8859 167.852
51.672 66.0657 166.898
54.7629 65.4488 168.628
103.498 69.5966 166.637
96.6406 69.3706 168.17
62.288 73.0165 167.345
93.7675 74.9119 165.733
71.4798 73.8997 167.587
83.4133 73.7455 167.513
90.2551 77.1216 164.635
73.1219 75.5158 166.529
-47.3876 -106.983 169.032
-37.9637 -105.875 167.366
-33.5584 -104.877 167.432
-67.4349 -101.401 167.855
-68.5139 -99.2691 169.41
-81.9894 -88.0541 166.721
-10.7369 -88.4832 169.335
-9.89459 -85.0549 166.975
-3.5797 -75.7633 167.496
-1.24956 -74.2017 168.109
2.00623 -71.2884 168.31
1.14061 -67.875 166.717
-85.4055 -68.1903 166.257
3.83911 -65.8579 167.393
7.16265 -64.7622 168.553
8.74627 -57.7475 167.092
-79.1412 -57.3185 167.266
11.1417 -55.2042 167.375
-75.474 -53.9577 167.388
13.1032 -51.392 167.314
-73.6184 -50.3524 168.326
17.5526 -48.8518 167.996
-63.4905 -46.837 167.991
15.5174 -47.4605 167.498
19.8639 -46.6068 168.109
-5.82561 -46.3254 167.48
-16.6203 -45.9661 167.415
-12.8329 -46.1377 167.815
0.281938 -45.7375 168.109
17.6031 -45.6279 167.522
23.208 -46.0398 168.508
-22.1124 -43.616 167.908
-9.32521 -45.225 168.156
-4.20816 -44.2665 168.354
10.7168 -42.3354 168.236
12.575 -45.239 167.414
-49.4401 -42.2247 169.086
-30.5253 -43.6584 167.724
9.37609 -44.9675 167.69
14.9777 -43.6174 167.504
19.4099 -43.7614 167.743
23.2754 -43.5172 168.165
-46.3814 -43.8708 167.493
-23.5574 -44.0204 167.433
18.5234 -41.3161 167.938
21.9285 -41.0014 167.516
24.5764 -41.3209 167.812
25.0032 -38.7809 167.633
26.2866 -42.0408 168.152
30.1938 -40.7468 168.414
28.2086 -36.2203 167.252
29.6244 -36.8315 167.295
26.2216 -35.9569 167.807
43.5808 -33.8444 167.519
31.9526 -31.1537 167.261
58.0703 -29.1783 168.094
31.3878 -29.0706 168.126
-180.547 -27.304 166.519
34.4388 -27.0331 167.491
217.719 -26.8346 167.975
209.469 -25.8491 167.421
-176.523 -27.0969 166.119
197.256 -24.4974 167.595
-169.828 -23.4777 167.227
38.6248 -22.1651 167.309
-186.05 -24.1245 167.777
171.972 -21.5692 168.223
-149.04 -20.5334 167.96
-187.765 -18.3732 169.711
40.541 -18.372 166.699
79.2919 -18.1661 165.503
-188.008 -18.2396 167.659
38.0878 -18.7283 168.25
165.755 -17.2384 166.91
221.298 -16.4317 168.187
161.289 -14.5574 167.041
-147.377 -14.2823 168.568
-185.485 -14.0691 166.945
41.7391 -12.3376 167.601
151.711 -10.0151 167.528
-180.411 -11.8769 165.879
147.013 -7.228 166.094
222.34 -7.9195 168.213
-151.823 -8.70438 166.884
103.196 -7.40047 166.942
177.101 -8.94624 169.46
182.735 -7.47341 167.554
198.071 -8.88818 168.338
-166.376 -7.7152 166.179
111.767 -4.2243 167.217
140.586 -6.11219 166.966
172.013 -2.22572 166.356
213.57 -3.63297 166.964
119.808 -2.91052 166.775
167.844 -3.95954 168.443
217.177 -2.56666 166.742
220.825 -5.54934 169.456
-6.66966 -44.1119 255.733
159.666 2.89616 166.33
-11.8086 -43.0748 254.594
155.85 1.0134 168.888
44.8055 3.27991 168.167
45.8118 5.19733 167.215
46.2257 9.18671 167.581
139.102 13.8196 168.674
141.174 15.4721 167.094
134.406 19.6774 168.888
48.0705 28.5543 168.748
48.5006 32.8899 168.354
126.758 34.3553 167.176
122.868 38.1427 168.266
121.138 42.0904 167.671
49.585 41.2281 166.555
49.3916 51.9538 168.94
115.996 48.2895 168.961
48.7177 62.4347 166.396
114.218 59.0769 167.746
49.9243 63.3356 167.809
58.4077 72.4179 166.312
88.679 73.2782 167.448
63.2077 75.1797 166.178
66.7451 74.331 167.088
68.8189 72.5829 168.607
75.9998 73.7877 167.581
-18.063 -32.7649 255.755
-12.648 -37.8751 256
-50.2153 -106.601 168.869
-42.634 -106.609 168.863
-36.4089 -105.904 169.584
-53.1861 -105.731 168.877
-33.6729 -105.451 170.226
-57.2016 -104.67 168.728
-29.9233 -103.611 168.576
-26.6164 -101.087 168.136
-20.8252 -97.5184 169.915
-73.5433 -94.4478 168.237
-20.5283 -95.8836 167.689
-16.0833 -91.304 166.888
-79.0727 -88.705 169.423
-80.9573 -86.0734 170.338
-85.1887 -80.705 168.51
-2.97019 -78.931 169.862
-86.1968 -72.7247 169.47
2.46692 -68.9967 167.83
-85.9097 -66.5975 168.746
-85.4264 -62.9237 169.514
-84.1237 -62.6555 168.315
-84.1508 -59.8326 169.521
11.4604 -59.1879 168.671
-82.1039 -56.7045 169.562
14.0595 -55.0958 168.141
-79.6655 -54.8303 169.009
19.6834 -50.3141 168.861
-75.3742 -50.5131 169.006
-70.1139 -48.4972 168.472
-67.2463 -47.2333 168.049
-63.2297 -44.3178 169.464
-56.7347 -45.135 168.072
26.1881 -45.0704 169.024
-58.1786 -42.9049 169.758
-10.4049 -43.3967 168.672
-1.9229 -44.3438 168.426
3.89965 -43.13 168.662
6.9627 -45.9189 167.552
-34.6377 -41.2248 169.187
-18.2399 -43.2816 167.868
28.9437 -42.1184 168.754
-27.8141 -41.005 169.13
-13.7531 -43.6608 168.285
-5.86439 -42.6699 169.1
7.36046 -40.5125 169.509
13.0451 -42.1464 168.187
32.7644 -38.6597 168.23
19.885 -38.4144 168.45
37.9892 -37.1272 168.31
40.9779 -34.517 167.474
16.3188 -37.1192 169.709
22.4845 -36.3459 168.48
24.5533 -37.0412 167.894
29.2054 -31.639 168.203
29.6947 -27.728 169.766
32.4427 -27.5104 168.525
212.697 -29.5043 169.938
214.467 -27.9417 168.695
220.098 -28.2912 169.543
220.527 -25.8771 167.544
32.1843 -26.0414 169.424
34.4731 -25.7488 168.351
66.8143 -25.2554 167.907
223.859 -24.9041 167.847
32.3225 -24.051 169.823
178.545 -24.7237 169.199
35.2539 -23.5603 168.272
35.2382 -22.4597 168.537
-159.67 -22.2601 168.15
36.9017 -20.8342 168.462
75.915 -21.3629 168.218
-157.764 -22.3449 168.076
-152.053 -21.9218 168.146
169.371 -20.2391 168.124
224.676 -20.8933 168.794
223.66 -17.4119 166.922
84.9201 -18.9989 171.484
37.1293 -17.5929 169.556
-182.967 -10.6522 168.438
220.156 -13.3649 169.249
-148.498 -10.6324 168.492
146.88 -10.0167 169.751
193.471 -8.89237 167.841
221.171 -10.6202 167.681
204.792 -8.39536 168.813
-171.106 -7.39522 168.431
222.255 -6.05348 168.637
-161.892 -6.84055 167.037
-156.433 -6.9641 168.321
-154.036 -6.03643 170.677
171.86 -5.60523 168.6
216.98 -6.37165 169.772
-162.149 -5.0878 169.059
41.924 -6.43092 169.438
116.373 -4.95313 169.308
122.964 -3.13123 167.224
162.754 -1.80167 168.453
44.0283 -0.350006 168.531
-9.3016 -44.0363 255.345
152.883 3.97738 167.843
146.474 6.68285 168.655
44.2183 6.85111 170.497
144.59 9.18713 168.293
142.93 12.0361 167.898
45.614 12.8606 170.127
138.262 18.2924 167.571
47.0346 21.7802 169.775
132.484 26.9489 166.721
47.715 24.7644 168.841
126.629 26.6193 169.499
123.875 31.7118 168.38
123.678 32.6128 168.28
123.576 35.9307 168.599
48.3528 34.5413 169.944
118.6 37.515 170.429
49.1612 40.6995 168.397
49.0293 40.4016 170.76
49.3849 45.872 167.834
49.2968 48.3486 169.917
116.688 55.5891 167.768
49.3159 57.2352 168.644
49.2474 61.2893 167.697
110.455 61.1782 168.192
51.7076 62.4692 169.605
102.563 67.0828 167.996
57.2436 68.6042 167.842
62.0186 68.7833 169.71
92.484 71.6662 167.7
68.079 71.4512 169.273
87.0933 70.3585 169.489
77.7802 71.555 169.497
-49.7359 -106.901 170.504
-46.3126 -106.923 170.723
-31.048 -104.781 170.543
-60.9943 -103.205 170.412
-63.427 -102.57 168.933
-71.2607 -96.3805 171.034
-73.2194 -93.3368 170.866
-13.4826 -91.0615 169.684
5.23417 -70.3982 169.663
7.34151 -68.1313 169.993
10.4036 -64.8146 169.852
-85.3729 -58.448 171.578
12.5999 -61.4725 169.853
-84.0602 -58.0584 170.456
15.0163 -57.7852 169.535
19.259 -54.7321 170.145
-82.6778 -54.1966 170.512
17.1752 -52.2618 168.705
-79.5526 -52.7938 169.549
-78.5986 -48.9556 169.708
-74.3097 -48.3743 169.521
20.4807 -49.2878 168.881
-77.6131 -47.2618 170.071
26.3036 -47.7301 170.424
-70.5592 -45.5077 170.221
33.3059 -42.899 170.449
-53.6896 -42.9883 169.503
-8.74014 -41.3273 169.77
-0.446256 -41.0449 169.866
35.4055 -40.2122 169.618
-42.7014 -39.9698 169.521
-39.9667 -41.3705 168.698
-31.7837 -42.1833 168.506
-19.5345 -41.0221 169.325
-16.3725 -39.9657 170.127
-11.3301 -40.6789 170.199
-46.1915 -41.19 169.198
-31.8278 -40.1007 169.975
-13.2143 -41.1556 169.668
0.183784 -38.9486 170.89
11.5251 -39.271 169.508
-22.7149 -40.0811 169.778
15.4567 -39.6018 168.764
40.3601 -38.53 169.921
45.8614 -35.6911 169.643
48.3349 -33.9216 169.01
50.6617 -32.0966 168.101
25.7561 -31.0125 169.754
61.4961 -29.942 170.773
208.863 -31.0739 171.464
26.5712 -28.0155 170.605
206.668 -29.08 170.279
223.276 -27.0846 169.687
194.23 -26.684 169.381
203.799 -25.9846 168.24
189.298 -26.7867 169.834
223.764 -27.97 171.002
29.182 -25.2502 170.521
174.564 -25.5095 170.965
-183.242 -24.4775 170.028
-165.753 -21.4347 169.22
33.0052 -21.1849 170.757
-163.519 -20.1579 170.363
162.226 -17.9292 170.404
-187.775 -16.0619 170.186
-187.106 -14.2579 169.833
-147.371 -12.7682 169.735
40.3052 -11.2257 169.467
153.681 -12.0854 168.994
194.215 -11.537 169.89
-185.868 -11.0861 170.388
182.463 -10.7439 169.681
200.568 -11.5923 170.634
100.186 -10.5647 169.675
204.039 -11.3183 171.076
221.026 -10.5624 170.315
208.868 -7.05096 168.639
221.228 -8.83447 170.606
39.2663 -9.16364 171.434
212.316 -6.649 169.104
133.218 -5.67584 168.882
219.433 -6.63593 170.39
128.868 -5.31426 169.442
-165.286 -5.26347 168.732
163.437 -5.86305 171.101
41.4485 -2.44468 171.365
-9.06368 -46.2137 254.634
150.747 1.67201 170.159
136.066 10.2601 171.423
46.0154 17.2929 170.601
131.767 21.9859 169.32
130.181 23.9709 169.388
47.5678 27.9506 171.273
120.769 34.3901 169.938
118.6 41.4557 169.12
112.978 40.8422 171.793
117.846 44.7023 168.818
113.791 53.8281 169.096
108.104 56.7228 170.539
101.732 63.2044 170.06
93.6347 66.8206 170.171
91.3576 67.2518 170.368
66.3024 70.1832 169.996
77.9827 69.7917 170.557
84.8532 72.0833 168.758
72.8651 71.4474 169.644
-12.3175 -40.2318 255.785
-8.6854 -42.1521 255.872
-42.4114 -106.581 170.804
-33.4222 -105.26 172.598
-31.5349 -104.875 172.529
-57.4274 -104.917 170.862
-61.4779 -102.754 172.531
-28.6045 -103.512 170.467
-23.6739 -100.681 171.46
-17.4949 -94.7194 169.987
-14.7679 -92.6081 170.005
-9.28713 -87.5662 169.607
-7.22745 -83.142 168.429
-82.4385 -83.9331 170.394
-1.81836 -82.3009 172.699
-2.83386 -81.0486 171.046
-84.8618 -76.0378 172.831
-0.395162 -76.6675 170.129
-85.6527 -74.8305 170.284
-86.5803 -68.1198 171.443
11.823 -65.733 170.927
-86.4456 -67.873 170.079
16.0799 -63.085 172.203
17.4617 -60.1109 171.528
19.4824 -57.939 171.639
22.3058 -54.9175 171.456
22.5623 -51.3192 170.233
-81.2321 -50.8518 170.123
-83.3347 -50.4349 171.286
26.1912 -50.9375 171.593
-82.1002 -45.6065 171.485
-79.8737 -45.9167 171
-72.6802 -46.4256 170.006
29.7829 -45.6012 170.69
-75.8028 -43.8538 171.435
-70.2591 -42.4154 171.602
-72.3671 -42.2725 171.711
-66.4115 -42.3106 171.184
-66.1525 -44.2059 169.997
-56.8045 -41.8075 170.518
36.8384 -43.1921 171.918
-46.8151 -38.6266 170.995
-19.6613 -39.2611 170.492
-41.4744 -37.6601 171.227
-38.6918 -38.9073 170.317
-4.23278 -40.0947 170.519
5.16404 -37.4726 171.013
-35.8314 -37.3754 171.19
-28.2585 -38.1481 170.98
13.8365 -34.8882 171.008
16.0341 -32.5535 171.526
19.254 -32.0071 171.062
22.2822 -31.3115 170.733
216.976 -29.5129 169.906
63.0852 -28.2613 169.566
196.464 -28.6817 170.792
182.215 -29.8544 172.872
26.9496 -25.9512 171.396
72.1891 -21.7892 166.329
-183.681 -22.0082 172.216
-180.973 -24.547 170.021
224.891 -23.2905 171
76.4866 -23.7548 172.427
-184.91 -23.1439 170.046
-175.591 -21.1845 171.496
80.0893 -20.1364 169.379
-186.016 -21.9008 169.888
-173.206 -20.2499 171.61
222.037 -18.8529 169.457
-153.436 -18.8416 173.313
36.7679 -14.2557 171.111
220.293 -16.3261 170.925
93.0888 -14.6268 171
155.372 -14.9307 171.293
188.936 -12.7126 170.718
37.9074 -11.9988 171.105
150.051 -13.028 171.9
211.254 -9.68034 171.139
105.449 -8.01144 169.507
-183.479 -8.50484 170.876
113.319 -7.02125 171.363
134.777 -7.23851 170.399
220.01 -9.29738 171.761
-179.627 -8.10047 169.517
-150.391 -7.95646 169.797
39.0189 -6.90134 172.215
123.717 -7.3866 172.203
-177.908 -7.47446 169.622
-151.904 -5.69509 171.8
-168.503 -4.79939 170.479
-156.256 -4.80267 171.106
159.701 -4.60191 171.335
151.672 -1.33857 171.791
40.8124 4.67607 173.847
142.663 5.40594 170.992
135.429 14.3368 170.391
131.5 15.8423 171.968
128.713 20.1645 171.429
46.1743 20.5799 171.658
46.9041 24.8143 171.589
48.0684 31.1804 171.063
120.192 31.732 170.668
115.741 35.7141 172.205
49.3978 44.4481 171.336
113.182 44.4956 171.298
107.645 51.3184 171.905
111.278 56.3219 169.576
50.0136 58.5067 170.001
100.316 61.5467 171.161
105.381 60.4849 170.049
58.8342 66.9747 169.694
86.4919 66.1804 171.937
-10.0838 -42.6276 255.802
-44.5626 -106.223 172.876
-39.368 -105.795 172.833
-63.3269 -102.065 170.858
-66.6428 -99.9666 171.012
-64.4814 -100.564 172.52
-16.5011 -96.645 173.073
-13.5854 -94.1481 172.758
-76.6211 -89.3089 172.731
-6.16351 -86.6172 172.083
-82.4448 -82.5799 172.002
-79.892 -84.0171 172.632
3.48888 -74.5243 171.109
10.8317 -68.5059 171.958
-86.4489 -64.0455 171.099
-86.1124 -58.5351 173.031
-84.0212 -49.8066 172.015
-84.5929 -47.3734 172.435
30.8691 -47.6283 171.866
-78.4927 -44.3844 171.29
-82.4358 -42.3474 171.514
-83.6808 -41.1112 171.648
-80.1238 -41.1586 171.972
-64.6488 -40.2999 172.504
-82.4997 -39.0884 172.051
-56.5748 -38.4573 172.941
-54.1786 -39.2065 172.091
43.3222 -40.8655 172.821
45.8116 -37.266 171.023
-50.3902 -39.6718 171.232
-44.1603 -38.3465 170.889
-30.4772 -36.5907 172.161
-14.3723 -37.4198 171.791
-27.1504 -34.7581 173.432
-21.5051 -35.8486 172.245
-8.96597 -37.7825 171.802
50.3091 -35.676 171.558
-41.2941 -34.499 173.088
-32.6259 -34.184 173.504
5.76296 -32.6643 173.171
7.41567 -36.4645 171.076
55.2466 -35.542 173.65
218.235 -31.6078 171.555
220.677 -30.5978 171.318
18.1601 -30.9202 171.634
186.011 -26.5558 169.824
197.814 -30.6451 172.031
23.3399 -28.7888 171.495
224.738 -28.1341 172.56
169.387 -23.4848 171.523
225.546 -25.2978 171.45
-180.322 -21.0466 173.765
223.456 -21.2421 170.508
-181.964 -21.6032 173.151
166.723 -20.5471 170.249
-185.172 -19.6515 173.163
162.484 -20.4181 173.055
220.994 -17.9252 170.433
-170.412 -20.9319 170.355
-167.158 -19.3726 172.079
-155.702 -19.7706 171.689
-148.506 -18.8539 170.696
32.9799 -17.4918 172.049
-187.587 -16.8144 171.164
158.181 -16.1227 171.056
-187.712 -13.4151 172.631
182.296 -14.2336 172.172
188.787 -14.1657 171.88
195.282 -14.8405 172.569
199.977 -15.0956 173.124
220.28 -13.7387 172.307
-146.307 -12.2875 172.329
97.9041 -12.1876 170.729
-187.612 -11.6578 173.885
103.921 -10.4437 172.06
143.783 -10.179 171.105
-147.347 -10.3764 171.525
138.535 -8.60789 170.838
214.827 -9.32228 171.584
-148.405 -7.62096 173.683
107.989 -8.07922 171.003
166.296 -6.65315 170.669
218.458 -8.22473 171.542
121.253 -6.36637 171.142
40.4586 -4.94987 171.625
-176.579 -5.05357 171.437
-173.668 -5.14216 171.552
-158.37 -5.30337 170.182
-168.311 -3.27659 172.21
-166.013 -3.22044 171.522
43.2474 1.32283 170.043
145.089 1.89415 172.304
43.314 4.43022 170.651
44.585 9.99386 170.73
133.716 11.6411 172.107
44.3931 15.7113 173.513
126.846 23.4544 171.413
120.994 26.0834 172.451
120.504 27.6418 171.884
121.404 29.63 170.592
116.266 30.4512 173.119
48.4609 35.7551 172.905
115.879 39.716 170.794
50.2756 50.47 171.638
105.663 54.6685 171.945
50.6032 59.3701 170.593
53.3815 60.5724 171.842
55.7858 62.1621 171.755
96.7679 64.0216 170.914
60.9978 65.3256 171.675
65.0789 69.3156 170.294
82.56 67.4816 171.791
71.3016 67.6656 172.22
73.3038 69.0125 171.269
80.4771 68.4037 171.508
-20.8999 -29.3271 255.334
-18.3049 -30.1613 254.546
-54.7677 -105.74 171.682
-57.2124 -104.837 174.678
-11.4568 -93.8365 174.094
-72.6738 -92.031 173.698
-9.16451 -91.1874 173.197
-0.037195 -79.1187 172.024
-84.046 -79.0159 172.309
7.5992 -72.4622 172.084
8.81316 -71.1158 171.946
-86.3606 -69.0159 172.842
-35.6282 -66.314 173.459
-37.5587 -64.1099 172.902
-32.8241 -64.9652 173.261
-86.6562 -63.8108 172.795
-34.3276 -62.4291 172.983
19.5637 -60.6384 172.939
-86.3243 -58.9823 173.753
-36.5087 -60.8255 173.084
-40.1285 -61.0426 173.18
24.5878 -54.7179 172.511
-42.9112 -57.7471 173.464
-45.5244 -59.5417 173.213
-51.3363 -56.6089 172.897
-86.4099 -54.1118 174.058
-48.9097 -55.6316 172.98
-45.8152 -55.2148 173.392
-84.8411 -53.9312 172.149
-51.7673 -54.6065 172.945
-48.406 -50.497 173.826
29.5297 -53.3858 174.164
33.2274 -46.2295 172.024
-86.645 -45.8883 173.71
-84.8621 -43.1157 172.02
-87.6924 -40.5415 173.497
-76.272 -39.8132 173.134
-71.6142 -39.5291 173.263
-61.4507 -40.9425 171.855
-86.7011 -39.6526 172.991
-66.714 -39.6181 173.1
-49.3284 -36.6095 172.6
51.2534 -37.6979 173.814
-45.0532 -35.663 172.284
-38.1184 -36.1627 172.294
-24.5686 -37.0523 171.521
-3.85096 -35.857 172.685
-44.3171 -33.0837 174.135
-16.8705 -35.1091 173.071
2.50496 -35.541 172.079
59.2383 -32.3953 172.441
200.784 -31.376 172.334
212.107 -31.8506 171.773
221.54 -32.6613 173.126
3.16106 -31.9004 173.578
63.0803 -31.1758 173.525
65.8034 -29.1818 172.917
179.515 -27.0496 171.01
14.8802 -30.5629 172.699
174.428 -28.1976 173.4
17.6975 -28.552 172.892
68.6309 -26.5754 171.223
73.5277 -26.3703 174.14
171.736 -25.5189 172.138
20.8098 -28.086 172.571
224.505 -25.405 173.165
24.5639 -24.878 172.923
223.687 -23.4328 172.882
28.6312 -22.5625 172.089
80.938 -21.2641 172.001
-178.462 -22.465 171.421
-176.189 -18.1694 174.84
221.794 -20.9086 174.249
29.8999 -19.8564 172.597
-161.747 -20.2599 170.421
-150.282 -19.351 171.82
88.619 -16.2829 170.144
-168.919 -16.8741 174.938
-149.477 -17.2102 174.602
-147.454 -17.3054 172.333
189.015 -16.2518 173.429
-187.681 -13.2939 173.787
201.695 -13.4743 172.296
146.271 -11.6792 172.011
207.781 -10.7571 171.351
218.879 -11.5488 173.005
109.368 -9.96895 173.978
118.899 -6.66114 171.485
162.282 -9.33859 173.622
-185.577 -7.41334 173.773
157.968 -5.75845 172.661
-151.388 -3.94102 174.214
-181.679 -4.42908 173.491
-178.47 -3.37985 173.338
40.285 -1.43983 172.611
152.021 -3.62109 173.098
-168.782 -1.49783 174.193
-158.768 -2.81422 172.442
147.995 -1.23921 173.058
138.868 8.18159 171.154
134.77 6.90197 173.644
42.7657 10.7838 173.439
43.8122 13.9956 173.661
45.3189 20.5265 174.584
115.868 27.3636 174.163
47.2693 27.7131 174.276
117.676 29.1321 172.617
112.368 32.4964 174.691
49.2854 40.5097 173.481
108.81 43.6598 173.081
110.717 47.769 171.453
51.6803 54.6038 172.71
101.024 56.4925 172.853
51.8582 59.1229 171.589
98.4552 59.6431 172.49
57.9312 63.3573 171.799
91.3058 61.2038 173.706
66.9771 65.6935 172.935
86.1325 63.3271 173.725
74.2418 65.204 173.599
78.0706 66.0755 172.984
-54.9199 -105.32 175.27
-51.2028 -106.38 173.016
-27.3659 -103.305 174.259
-22.4496 -100.689 173.582
-69.3923 -97.9828 172.104
-70.7312 -93.5028 174.989
-73.7291 -90.0853 175.71
-6.91617 -91.5659 175.525
-77.9312 -87.1072 173.451
-3.1174 -84.8734 173.376
-77.5978 -84.4476 175.066
-78.6618 -82.759 175.472
3.59519 -78.8596 174.319
-85.3038 -72.2478 173.753
-33.401 -66.2703 173.555
-38.6803 -65.0429 173.35
19.4291 -64.1467 174.551
-43.7516 -63.1299 173.98
-29.5829 -63.4748 174.134
-86.419 -64.4473 174.514
-45.0689 -61.4613 173.508
-31.5819 -62.7749 173.547
-29.3484 -60.9384 174.435
-55.5873 -58.6065 174.116
-50.5421 -60.443 173.603
-32.6144 -58.3105 173.954
24.4751 -56.9416 173.414
-39.9388 -57.3553 173.642
-34.9351 -58.7002 173.624
-56.3914 -54.7256 173.855
-36.8187 -52.5658 175.08
-45.144 -53.8006 173.617
-40.0396 -55.2337 173.98
-54.6528 -50.7506 173.931
-50.9403 -51.0195 173.645
34.4596 -50.7395 175.053
-49.4538 -49.2005 174.18
-85.9691 -49.2876 173.581
39.5007 -43.249 173.023
-73.3464 -39.4218 173.511
-67.8949 -37.3161 174.182
-58.8167 -38.0864 173.701
49.62 -39.0219 174.287
-87.8143 -36.681 173.711
-71.7785 -36.9759 174.484
54.3444 -34.7154 172.333
-90.2525 -36.4764 175.006
-85.3019 -38.183 172.896
-83.7146 -36.7401 173.41
-79.39 -37.1382 173.693
-53.6456 -35.6807 174.225
208.024 -35.4729 174.638
212.433 -36.0203 174.802
-89.2292 -34.566 174.548
-37.0637 -33.4708 174.026
-12.4403 -33.9197 173.658
197.143 -32.9548 173.785
-86.1919 -34.1065 174.156
-25.889 -31.0184 175.462
-21.5973 -33.5375 173.748
-16.1225 -32.9287 174.345
-7.65956 -34.3532 173.281
-3.0412 -33.5933 173.52
189.372 -30.5637 172.651
190.712 -33.2166 174.424
185.462 -33.3893 175.082
-7.27268 -31.7323 174.618
-3.33126 -31.8788 174.489
179.731 -31.2753 174.417
9.29215 -30.9232 173.451
11.1217 -31.0592 173.172
15.3402 -27.7703 173.789
13.2428 -27.7708 174.104
21.1002 -24.8704 173.94
167.94 -24.1944 173.281
86.5434 -21.0483 175.967
27.1617 -19.2314 174.539
157.31 -19.0254 174.812
-185.143 -18.0312 174.172
-151.811 -19.7979 171.813
30.2024 -17.8067 173.884
92.4656 -17.0009 174.554
194.302 -16.5286 173.744
220.182 -16.3316 173.449
-159.227 -16.9371 174.539
180.549 -16.2623 174.13
182.911 -17.1625 174.493
219.358 -14.9156 174.255
32.5053 -13.5253 174.489
33.7538 -13.8152 173.677
177.432 -12.8327 172.069
204.093 -14.45 173.204
-186.774 -16.5425 172.71
173.896 -11.7262 172.117
174.492 -13.7857 173.593
210.737 -15.4782 174.958
169.748 -9.00528 171.217
141.028 -11.8783 173.979
34.9417 -9.95061 174.382
127.335 -8.73389 173.281
113.647 -8.93751 173.797
-150 -6.3516 172.569
154.271 -7.03499 174.832
-153.824 -3.29436 173.781
-161.186 -1.78507 173.431
-163.236 -2.54296 172.234
-156.612 -1.52838 174.502
40.7496 2.5237 173.384
41.897 7.65664 173.743
128.677 16.4986 173.116
48.4368 33.2612 175.366
50.3871 41.1833 176.829
105.66 46.4712 173.808
51.5728 48.6719 174.667
51.0944 52.3863 172.595
102.566 49.6332 174.229
53.7536 52.8951 175.251
102.241 53.6918 173.327
53.8193 55.5471 174.201
96.204 56.8772 174.231
91.481 59.038 174.687
56.5142 60.2161 173.523
60.5989 60.9304 174.275
64.0209 66.1234 172.212
69.4287 63.7048 174.282
80.152 64.6353 173.773
-36.2049 -104.656 175.409
-58.9157 -104.015 174.905
-63.5835 -100.361 175.363
-67.887 -98.6703 173.5
-19.3415 -98.4011 172.623
-68.0933 -97.156 175.365
-0.167558 -82.0632 173.763
2.90012 -82.1502 175.663
-82.1589 -79.0658 175.641
9.72223 -74.6252 174.903
-84.3204 -76.2317 174.149
12.9201 -70.2191 174.048
-85.7345 -69.0623 175.109
-36.115 -68.5426 175.282
14.2799 -67.5406 173.482
17.8026 -66.2856 174.665
-40.7885 -66.7569 174.991
-44.3528 -66.9346 175.851
-29.8124 -65.9099 174.5
-48.6509 -62.681 174.247
-53.274 -62.0528 174.638
-26.7301 -61.1117 175.477
-55.6129 -62.0255 175.126
-57.7126 -58.5543 174.332
23.1043 -60.6081 174.543
-60.8183 -59.5728 175.222
-86.1192 -58.7862 174.935
-63.0889 -58.2484 175.675
-59.233 -56.8718 174.457
-86.4487 -54.9463 175.13
-62.3869 -55.4609 175.424
-58.5307 -51.6583 174.553
-40.9702 -51.7766 174.759
-87.0944 -50.2904 175.091
-44.3776 -50.4793 174.63
-53.0832 -48.4066 174.468
-88.1367 -47.9037 175.466
-48.8556 -47.2117 175.003
-88.7074 -43.5587 174.797
44.9223 -42.6427 174.864
214.038 -36.9014 175.471
-75.1147 -36.8267 174.637
-63.1605 -36.8927 174.016
219.003 -35.0307 174.492
-65.2659 -35.962 174.599
197.203 -35.3824 175.402
221.611 -36.1157 176.317
-81.1597 -34.9648 174.674
-58.3447 -34.8529 175.353
-56.5686 -36.2096 174.345
-49.6382 -33.8541 174.156
-47.2917 -31.6434 174.769
-29.7137 -32.2532 174.637
-22.1371 -29.7172 176.144
-13.5915 -30.8695 175.444
176.787 -29.8845 174.063
-49.6056 -31.2365 175.402
-33.64 -31.4086 175.566
63.785 -33.0402 176.195
225.363 -30.8139 176.099
-18.349 -30.556 175.63
-10.6 -30.8647 175.44
224.984 -26.9372 172.984
4.37028 -27.6064 175.659
6.14776 -29.3198 174.751
9.13129 -27.0493 175.602
16.7664 -24.1502 175.107
83.8342 -23.0741 176.69
21.5663 -22.3753 174.96
24.6194 -20.952 174.71
88.602 -19.8334 175.922
197.846 -16.9397 174.318
220.735 -18.7909 174.695
29.5979 -16.3498 174.882
-164.542 -17.8682 173.357
-152.378 -17.1277 175.454
94.0595 -17.5382 176.43
206.334 -15.9268 174.606
-147.341 -15.8426 174.727
170.596 -14.1119 174.58
173.786 -16.4711 175.615
212.79 -13.4753 174.049
217.062 -11.8991 173.448
165.573 -10.3844 173.396
137.063 -10.8657 173.902
131.25 -8.73279 172.815
-146.686 -9.55129 174.966
118.61 -8.91033 174.051
-186.691 -8.58073 174.493
34.4336 -8.79549 175.114
-147.785 -4.50136 178.412
35.5157 -5.81498 175.23
-149.452 -3.58444 176.862
-183.731 -6.10037 173.374
-178.621 -1.01538 175.165
-175.072 -3.15576 173.224
37.2338 -2.78673 174.95
-171.623 -2.91178 173.289
-157.212 0.061508 175.826
143.048 -1.19667 174.876
-160.749 0.127998 175.339
39.1462 -0.139977 174.115
141.203 1.50362 174.174
138.052 5.05981 173.448
38.9683 3.01723 175.06
133.08 8.53741 173.569
40.2355 7.97628 176.332
130.18 9.89848 174.406
124.776 12.5816 176.104
43.4451 16.0498 176.362
124.406 19.0382 174.211
123.177 21.6837 173.799
121.172 23.2313 174.015
112.688 27.4872 175.783
110.147 38.2357 173.705
106.922 41.862 174.283
50.5551 46.316 173.671
53.0481 49.1165 176.284
98.0095 52.2435 175.134
64.3782 62.1346 174.532
85.3493 60.7197 175.18
73.1218 62.2368 175.157
-48.0946 -106.161 174.398
-36.776 -104.157 177.175
-61.0305 -102.381 176.155
-29.5917 -103.623 176.513
-24.7764 -102.098 174.206
-18.2092 -98.8545 174.942
-11.1099 -96.0774 178.063
-71.766 -91.1654 177.132
-5.54776 -88.6883 174.53
-75.3258 -85.029 176.624
-2.49911 -87.239 175.513
0.563125 -84.0963 175.573
-80.9905 -81.2889 174.948
5.59672 -78.9165 175.673
-83.4169 -76.4318 175.57
7.77267 -79.1093 177.193
14.4665 -72.4359 176.225
-38.6249 -69.1436 175.998
-37.3034 -70.3925 176.621
-30.7563 -67.0913 175.044
-48.7701 -66.9265 176.677
21.6569 -67.0697 176.924
-53.719 -66.1051 176.812
-26.6004 -64.0318 175.937
-61.3757 -62.5609 175.993
-29.9704 -57.8299 174.801
28.1049 -57.548 175.658
-31.2281 -55.3544 175.361
-64.3752 -53.668 176.483
-31.0228 -52.5262 176.339
-86.8497 -51.7625 175.641
-60.7763 -51.261 175.355
-33.9032 -53.8411 175.148
-58.3796 -48.5747 175.257
-43.3449 -47.9841 175.579
-39.8363 -46.3083 176.624
38.4174 -46.1239 174.25
-56.0605 -46.6946 175.521
-46.7102 -45.9877 175.563
-90.0338 -43.2192 176.258
-52.8355 -45.9422 175.448
50.3593 -41.1052 176.265
-91.7255 -35.5165 176.419
202.953 -36.3416 175.562
-91.4631 -34.2622 176.1
-61.5349 -34.5728 175.624
223.107 -30.6714 172.714
-90.0076 -33.5758 175.398
-74.7436 -35.1835 175.644
-69.2772 -35.0228 175.797
-65.2809 -33.6276 176.121
-58.5673 -32.9653 176.181
-52.9185 -32.3827 175.74
174.714 -32.3744 176.935
-91.1235 -29.2834 176.726
-83.9072 -31.1748 175.914
-44.91 -30.2531 175.856
-87.9822 -31.956 175.42
-47.0471 -29.1938 176.611
-40.5778 -31.8852 175.155
70.5758 -28.7641 175.241
225.43 -30.6318 177.809
-89.775 -29.5752 176.371
-81.9136 -30.3562 176.629
-40.9808 -28.8191 177.308
-25.0894 -28.5917 177.291
-5.78643 -29.4107 175.897
1.13259 -28.2667 175.893
-0.772738 -28.8253 175.727
11.0688 -24.4617 176.575
163.901 -23.0685 174.808
161.9 -25.517 178.396
222.528 -22.0945 173.447
13.9453 -23.8008 176.024
17.619 -20.1869 176.329
159.439 -22.2994 176.78
188.233 -18.9352 175.588
22.1107 -19.8036 175.701
219.613 -17.7396 175.944
-183.319 -18.8509 175.153
-180.882 -18.5018 176.704
154.124 -17.9451 175.396
-178.605 -17.1164 177.372
-174.496 -17.2888 175.129
26.9964 -15.5586 176.01
145.37 -15.3564 176.253
217.631 -16.1283 176.042
-162.163 -16.753 174.622
97.8468 -16.4892 177.146
167.542 -14.8627 176.041
101.057 -13.4033 174.649
103.411 -12.5262 174.789
159.972 -13.9663 177.628
-146.419 -14.1916 176.316
106.416 -13.6732 177.446
-186.613 -12.8385 176.702
30.0459 -12.1023 175.938
108.189 -11.3234 175.284
124.837 -11.3004 176.199
-187.793 -11.6512 175.107
30.7748 -9.4594 176.751
158.472 -10.0344 175.325
-146.876 -6.50591 178.002
35.5212 -2.74952 176.052
147.348 -5.32056 175.97
36.8998 0.47274 175.586
137.733 1.01125 175.98
-170.55 0.204376 175.919
-166.11 0.642197 176.125
131.953 3.18749 177.412
37.4792 2.84211 176.271
130.192 5.90456 176.237
126.165 8.59362 176.559
127.975 11.3977 175.027
118.263 21.382 176.354
45.9785 24.181 177.394
114.152 24.119 176.542
46.1502 24.3286 175.019
48.2282 31.6007 175.963
109.482 32.2376 176.295
49.1639 37.6362 175.033
102.845 37.9532 177.068
106.633 39.8923 174.75
51.7563 43.4686 178.109
97.3246 47.4625 176.568
95.4125 50.2292 176.693
55.4312 57.9663 174.235
56.4715 51.6027 177.505
58.3829 55.8296 176.397
58.4255 57.6769 175.571
62.7797 58.5173 175.885
68.0163 59.3874 176.24
78.1617 59.5632 176.581
82.7177 60.0033 176.047
-57.8705 -103.841 177.716
-32.6941 -103.395 178.49
-20.8696 -100.931 178.148
-63.0831 -100.211 176.799
-65.2203 -98.3663 177.584
-68.9472 -95.0793 176.592
-69.351 -93.1771 178.69
-73.9352 -88.1754 177.104
1.50337 -85.5799 177.672
-74.0031 -86.3765 177.605
-76.6919 -82.7501 176.998
-79.5782 -80.258 177.65
-82.4484 -74.5633 177.778
-84.254 -71.2057 176.985
18.0659 -69.4166 176.572
-42.2338 -68.9218 176.225
-34.097 -69.6208 176.489
-44.5323 -69.3228 176.629
-52.968 -69.5075 177.984
-58.1374 -62.9475 175.651
-65.3677 -64.6504 177.527
-85.4002 -66.5734 176.798
-67.9496 -63.5418 178.021
-65.0117 -62.4426 176.919
-25.3174 -61.6987 176.584
-66.4569 -58.2808 176.997
-85.3504 -58.797 176.73
29.7964 -57.8671 176.616
-85.7623 -53.8088 177.253
-66.2468 -53.4508 177.489
-26.7105 -56.6947 176.717
38.6074 -49.9487 176.679
-32.6183 -47.7927 177.958
-63.008 -49.6053 176.787
-35.6818 -46.4631 177.59
-38.0476 -49.2118 176.052
41.447 -48.1514 176.918
-42.1234 -45.6251 176.589
-91.7418 -39.3076 178.021
53.7543 -38.7559 176.094
211.502 -38.3141 176.212
216.435 -37.179 175.869
188.729 -38.388 178.295
220.278 -37.5529 176.856
57.7704 -36.2406 175.971
189.605 -35.4044 176.024
-93.2221 -35.1032 178.684
180.822 -35.1768 177.122
225.559 -32.9747 178.09
-73.4397 -31.1423 177.548
-70.4449 -31.6053 177.474
-74.2656 -33.5732 176.557
-64.3223 -32.2905 176.888
-57.8408 -30.5937 177.491
68.5654 -30.6895 176.475
-92.7534 -29.3302 177.581
-61.1156 -30.1189 177.634
-51.5171 -29.2047 176.902
-36.4205 -29.918 176.89
171.921 -29.1733 175.539
-79.1565 -29.1041 177.639
-31.0125 -30.1054 176.411
-28.7351 -29.7005 176.522
-16.5826 -28.4614 176.736
-86.2997 -28.5277 176.762
78.8772 -25.1348 175.934
167.184 -27.2653 176.862
-9.07808 -27.1215 177.171
4.34003 -25.3794 176.98
-5.59751 -26.8359 176.852
1.45977 -24.3536 178.001
194.971 -19.882 176.21
153.121 -19.7726 177.45
199.275 -19.5894 176.219
203.477 -17.5934 175.221
220.476 -20.7597 178.088
91.6143 -18.8298 176.538
209.056 -18.4618 176.56
-181.799 -17.6614 177.281
16.4282 -18.5051 178.329
21.722 -17.0705 177.153
150.152 -15.8545 174.904
173.249 -18.5862 177.434
215.651 -16.9047 176.594
217.625 -18.7507 177.866
168.694 -18.3224 178.355
-183.5 -16.0264 177.632
-171.492 -17.0806 174.628
-165.573 -15.2292 176.845
103.663 -15.4967 178.412
139.542 -14.7916 177.227
-185.628 -14.5706 176.684
-163.516 -15.1081 177.107
25.0359 -14.8462 177.168
137.426 -13.3196 176.328
127.679 -13.8589 178.247
132.168 -11.0567 175.161
114.652 -11.4267 176.649
-186.931 -8.66293 178.895
-145.502 -11.5394 176.57
-145.03 -10.612 177.667
28.1557 -10.9501 177.352
152.952 -11.0719 178.168
-187.391 -8.99078 176.293
-185.409 -5.56668 176.369
31.5887 -6.69081 176.914
-180.683 -1.93104 175.38
-150.586 -1.21977 177.13
34.537 -0.080307 177.449
-174.287 0.673134 176.9
-156.08 1.59472 177.587
-153.466 -1.69954 175.469
-173.113 2.40383 178.214
-177.057 2.02176 177.892
121.942 9.62933 178.251
40.8026 10.2969 177.13
123.386 15.7947 175.938
44.971 21.3802 176.957
119.792 18.4248 176.637
48.3227 31.3241 177.323
108.338 30.0779 177.736
101.726 44.3162 175.811
52.5189 45.5257 177.615
90.0149 55.679 176.471
65.3919 57.5185 176.679
87.0127 56.3536 176.968
74.1159 57.7861 177.506
-53.4926 -105.115 177.009
-48.8434 -105.242 177.001
-41.3007 -104.667 176.203
-25.1642 -102.453 177.737
-21.5545 -101.236 179.522
-15.8035 -98.7505 178.315
-13.4129 -97.108 177.404
-8.62588 -94.1243 177.228
-70.936 -91.1367 178.584
-4.89899 -90.6218 176.619
-1.0253 -89.4783 179.088
-72.0247 -88.6291 179.521
7.17055 -82.3139 178.972
-75.3195 -80.9466 178.361
-80.832 -78.3471 177.886
11.8977 -76.2069 177.32
10.6322 -80.3627 179.825
-46.2235 -72.7834 178.009
-39.0441 -71.8475 177.23
-36.6853 -74.4054 178.356
-34.6897 -75.5897 179.207
18.0847 -72.1401 178.042
-31.2009 -69.7349 177.325
-49.7084 -69.5589 177.881
-84.1882 -67.1017 178.467
-61.0903 -67.6183 177.544
-57.352 -67.7653 177.525
-67.4499 -68.1523 178.63
-63.5181 -66.9124 177.636
-26.2641 -65.9418 178.093
-67.5306 -66.0544 178.126
23.9336 -64.0538 176.811
-70.9637 -65.5232 179.114
28.0985 -64.2729 178.693
30.5272 -61.1774 178.514
-83.9053 -63.0159 178.821
-84.0168 -56.7995 178.713
35.529 -54.568 177.717
-25.2952 -57.4036 177.266
-25.3302 -54.2403 178.588
-87.3582 -48.4901 177.976
48.0622 -48.7257 180.653
-64.2163 -45.9403 178.524
-89.1416 -45.8768 177.226
-60.8958 -46.031 177.015
44.4878 -45.3497 176.506
51.1668 -43.3992 178.579
-61.4057 -41.792 179.07
-58.0798 -43.3988 177.417
-44.5905 -44.0064 176.858
-51.1191 -42.7318 176.933
-47.5943 -40.2183 178.436
53.5034 -42.8493 179.556
211.836 -41.4999 178.402
214.197 -41.3137 178.31
217.685 -40.3521 178.177
-54.6988 -41.9299 177.557
205.935 -39.0012 177.13
221.714 -39.5046 178.714
61.2097 -35.8974 177.695
224.658 -35.8739 178.63
177.303 -34.9081 177.983
66.3924 -33.5569 178.457
224.747 -29.228 178.444
-63.5233 -29.1763 178.803
-56.0031 -30.758 177.145
75.9853 -28.835 178.641
-81.5244 -26.9827 178.41
-38.4529 -26.6921 178.95
164.585 -28.2331 179.331
-52.6271 -27.1875 178.259
-44.5892 -27.3042 178.099
-12.639 -25.0086 178.389
221.437 -23.3849 178.423
88.1538 -22.3883 178.931
-5.76398 -22.2482 179.333
9.37737 -22.5904 177.531
191.195 -22.8353 178.222
199.462 -22.0165 177.744
5.92909 -22.622 178.136
179.275 -18.9431 176.362
13.6583 -21.4885 177.314
175.976 -20.0116 177.884
212.947 -19.2644 177.77
219.026 -18.9223 177.553
171.27 -20.817 179.385
148.894 -17.9202 177.521
165.243 -15.0232 176.672
-175.977 -16.3307 177.166
-156.109 -15.5412 176.774
-150.834 -15.0277 177.696
-148.743 -14.8779 177.211
109.929 -12.9541 177.683
-170.607 -14.2735 177.905
-159.555 -14.0694 178.552
110.13 -15.6857 180.413
117.06 -13.5877 178.73
118.603 -10.8013 176.028
155.633 -12.9463 178.454
-145.957 -13.173 178.063
24.9046 -13.0228 177.907
151.441 -7.01913 175.825
-145.363 -8.38613 178.138
28.299 -8.30601 178.129
145.093 -8.33247 178.934
-186.242 -5.87434 178.043
141.802 -4.79619 177.665
137.027 -4.26149 179.264
139.422 -2.29982 177.059
32.3149 -2.1766 178.141
-183.986 -2.41652 178.095
-180.612 0.978416 178.1
-177.869 0.832062 176.983
-151.872 0.980087 178.025
133.311 0.354668 178.238
-163.711 2.85339 178.313
-162.621 1.57235 177.099
36.1991 3.71152 178.782
126.677 4.62769 178.375
38.2413 5.99115 177.427
127.688 7.21366 176.491
120.246 12.3834 178.496
41.6828 11.096 175.87
115.272 17.686 179.006
115.65 19.9143 178.113
110.21 25.8571 177.516
47.3167 27.8772 179.411
106.272 28.9819 178.878
106.047 35.0122 176.988
96.1163 40.4955 178.588
100.029 40.1222 177.438
94.8944 43.3583 178.468
93.6373 49.45 177.481
89.6258 51.8047 177.944
58.8071 53.655 177.583
62.7661 54.4528 177.896
85.5499 52.5652 178.802
67.8116 54.6893 178.366
72.1096 55.294 178.51
81.7057 53.8663 179.02
78.8437 57.641 177.516
-53.497 -103.987 179.816
-44.0719 -104.304 179.199
-37.2399 -103.544 180.524
-26.2163 -102.411 179.488
-14.9713 -98.738 180.008
-66.649 -95.7879 178.971
-3.15079 -91.2204 179.605
-71.9857 -86.8675 180.679
-72.6531 -85.8903 179.164
1.26901 -88.4637 180.428
5.1477 -82.2376 177.318
-71.2063 -84.213 179.794
-72.2783 -82.5593 178.732
-78.0498 -79.4071 179.013
-73.0331 -81.2301 178.766
-44.0545 -78.0993 179.8
-41.7842 -76.9998 179.289
-79.5533 -78.3246 179.02
-44.7272 -73.3284 178.005
-41.823 -74.0496 178.22
15.047 -74.7865 178.085
-47.3987 -75.5301 179.415
-51.6628 -71.7712 178.716
-48.9117 -72.4143 178.543
-33.0852 -72.0591 178.177
-59.6277 -70.4679 178.731
-81.8706 -72.7546 178.865
-79.8301 -71.7484 179.893
-66.2348 -72.1826 180.339
24.4577 -67.9378 178.712
-66.2603 -69.6347 179.083
-81.7559 -68.2809 179.828
-73.9823 -68.31 179.868
-69.6953 -67.6296 179.044
-83.4398 -68.2273 179.031
-24.2896 -64.1964 179.649
-73.9449 -65.0876 179.854
-24.989 -62.8248 177.388
-72.2948 -59.565 179.225
-69.9468 -57.4274 178.464
-23.6304 -59.2605 178.2
37.3254 -56.2412 179.468
-69.6414 -53.9813 178.974
36.6 -52.1284 176.833
-84.7907 -51.8526 179.034
-83.8185 -50.7931 180.135
-28.1814 -47.6151 180.029
-31.3075 -46.273 179.182
-90.2762 -41.6878 180.875
55.5236 -42.2309 180.082
217.342 -43.9845 180.566
198.491 -38.9085 177.667
-39.178 -42.2511 178.667
-57.5146 -39.4156 179.441
183.274 -35.0029 176.573
-52.9865 -39.2235 179.006
60.823 -39.7315 181.137
-92.205 -38.9585 180.06
225.082 -33.29 177.172
170.556 -34.5529 181.393
-93.6579 -31.3189 178.259
-94.0318 -28.7488 179.002
-72.882 -29.6481 178.471
-60.0312 -27.6293 179.408
-57.8379 -28.7383 178.733
-55.9658 -27.424 179.226
-76.7946 -27.8005 178.806
-93.427 -26.5734 179.674
-89.1597 -27.349 177.616
-85.5333 -25.3814 179.288
-58.4819 -25.1025 180.654
-47.5902 -26.4944 178.261
-31.9984 -27.0313 178.677
-28.5231 -26.507 178.635
-21.6842 -25.8327 178.712
-52.8725 -23.9662 180.844
-46.6061 -24.7866 179.658
-35.7271 -25.0415 179.788
-23.3441 -24.3649 179.588
-18.0659 -25.3553 178.732
185.705 -23.815 179.321
204.404 -22.4904 178.555
207.314 -20.8686 177.879
-8.43216 -23.9636 178.835
155.221 -21.7309 178.246
183.27 -21.3735 177.671
212.119 -22.605 179.672
2.41322 -21.8209 179.034
219.216 -21.8224 179.575
-3.53153 -23.3857 178.434
91.5037 -22.6043 180.903
149.763 -20.3901 179.273
216.163 -20.579 179.052
145.952 -18.8342 179.446
100.275 -17.2384 179.045
8.91552 -18.8009 179.23
141.569 -15.1618 177.221
12.4591 -17.9953 179.254
135.269 -15.3629 178.613
130.427 -14.782 178.794
-183.243 -14.0988 179.375
-153.631 -14.9887 177.874
18.6395 -16.203 178.745
23.2912 -11.1942 178.804
122.683 -12.4923 177.469
-172.693 -14.8468 177.577
-147.923 -13.587 179.359
-184.994 -12.1771 179.57
-186.923 -7.4948 179.036
28.2806 -5.09022 179.297
135.613 -0.445778 177.74
-182.88 -2.17949 176.923
-151.709 2.36608 179.376
33.8425 1.00617 178.975
130.648 1.64297 179.117
-175.154 3.35757 179.088
-160.966 2.50438 178.523
-157.076 5.15024 182.518
-169.615 2.53195 177.978
121.243 7.40725 179.241
39.3765 9.28538 178.83
119.587 15.4079 178.057
109.542 23.5929 178.69
44.7537 21.9909 179.982
107.069 25.9071 179.007
49.3997 33.7007 177.819
104.667 31.7166 178.961
100.725 34.092 179.825
100.149 38.0195 178.094
50.3691 38.1637 178.4
96.2316 38.2327 179.235
92.0025 44.4364 179.288
55.9108 47.0249 179.694
54.2721 49.7054 177.108
89.2575 45.4695 180.04
58.6326 50.3091 179.036
90.9569 48.6827 178.69
59.6717 48.6375 180.165
65.5851 52.5491 179.035
-39.4743 -103.667 181.684
-49.5305 -104.128 179.791
-29.9571 -102.373 180.784
-62.0702 -99.5259 179.798
-10.6567 -96.4144 179.753
-6.75565 -93.758 178.993
-68.0175 -82.8656 181.066
-68.4242 -81.2883 180.519
-41.0082 -79.4189 180.552
-49.961 -78.5251 180.741
-74.2098 -78.039 179.654
-72.4807 -77.3251 180.275
-38.5465 -76.5516 179.405
-36.3694 -78.4087 180.589
14.678 -78.6239 180.62
-51.2709 -75.316 180.023
-78.5264 -77.162 179.759
-77.6615 -73.922 180.193
-73.9601 -75.1238 180.375
19.6707 -74.2406 180.087
-56.2785 -73.0474 179.848
22.9295 -74.0164 181.441
-62.2591 -71.4153 179.659
-59.661 -74.008 180.808
-73.9689 -72.1332 180.349
-70.6904 -73.0143 180.619
-69.2591 -70.2072 179.666
22.5239 -71.0221 179.571
-73.6711 -70.1574 180.102
-28.3524 -68.6308 178.112
-79.8795 -68.7231 179.987
-76.0836 -67.7729 180.042
29.0696 -67.0092 180.357
-79.5734 -64.9191 180.298
-76.6816 -62.6991 180.213
32.8295 -64.4727 181.164
-81.9968 -64.9756 180.008
-78.8333 -60.8798 180.323
-82.2512 -58.9167 179.711
-72.6992 -61.4624 179.462
-74.1861 -57.7924 179.875
34.6178 -60.6777 180.242
-82.1778 -54.8654 179.816
-79.4198 -56.3711 180.396
-77.2614 -57.8007 180.447
-73.859 -55.9854 180.004
-79.139 -54.4147 180.705
-23.5772 -53.2262 180.245
-76.0165 -55.8022 180.49
-71.3496 -52.1649 180.166
-27.5955 -49.8552 179.203
43.5079 -51.4025 179.899
-71.2848 -50.1229 180.555
-66.8599 -48.4595 179.231
210.512 -44.1285 179.97
-88.8571 -45.4343 178.849
208.313 -44.6429 180.367
220.317 -42.2116 179.907
-31.7153 -42.9456 180.646
195.614 -40.3402 178.916
195.441 -43.8337 181.281
221.952 -41.0544 179.867
56.7417 -38.7531 177.802
-90.6101 -42.3534 178.366
-63.0071 -41.7336 179.625
-41.4581 -40.5366 179.182
-61.1489 -36.6769 181.984
-44.864 -39.3482 179.401
-56.4489 -35.7886 181.746
225.147 -38.0064 181.718
173.508 -34.8188 179.709
74.3522 -31.2699 180.482
-94.6864 -31.3861 180.221
-96.2096 -27.092 181.673
-65.3053 -28.121 179.645
83.3948 -25.6036 179.495
222 -26.4833 180.665
-71.641 -25.4119 180.54
-68.6271 -26.7264 180.047
159.698 -25.7289 179.653
189.352 -26.2621 180.738
-90.1231 -24.6555 179.745
-81.6218 -23.726 180.238
-75.3799 -25.0531 180.339
-54.9369 -24.5156 180.807
-50.5597 -26.0044 178.773
-38.3484 -24.2637 180.094
220.075 -24.0732 180.448
-41.9301 -25.2925 179.543
-29.0506 -24.4231 179.973
-19.8145 -23.4056 179.853
155.255 -23.4704 179.729
177.475 -23.8508 180.497
-85.1684 -21.512 181.577
172.678 -24.0875 181.666
175.41 -22.4084 179.92
217.201 -23.2069 180.612
-16.88 -20.5702 180.824
-11.0654 -22.0275 179.928
-20.085 -20.9707 180.867
-4.34814 -19.937 180.352
141.629 -17.9982 179.773
-1.11007 -19.5458 180.066
4.80775 -19.4795 179.692
1.63135 -17.5353 180.658
134.361 -18.0064 180.979
160.37 -17.2542 179.851
12.1637 -15.3507 180.601
118.245 -14.6941 179.662
-181.252 -14.2512 180.562
-171.792 -12.7712 180.188
-165.21 -12.9047 180.018
-154.105 -13.52 180.164
18.8353 -11.1385 180.445
-167.985 -12.7568 180.178
20.3773 -11.1283 180.075
-144.411 -8.42862 180.809
-143.929 -9.48735 180.072
140.777 -8.10586 180.494
24.1638 -5.94024 180.493
26.3799 -7.23973 179.296
-185.488 -3.48401 180.509
-147.659 -2.84954 180.319
131.334 -2.69207 180.851
-149.63 -0.072411 179.324
127.813 2.17731 179.759
-181.288 3.53406 180.814
32.9089 0.879349 179.485
-161.65 4.47148 180.644
-159.318 3.84251 179.831
-155.652 4.36673 181.468
-179.387 4.79823 180.518
-167.165 5.34826 180.855
-164.888 4.17846 179.831
35.0063 5.70993 181.147
37.1662 6.59444 179.464
41.3739 12.4515 179.027
113.994 14.7341 180.502
43.1911 17.833 181.189
106.511 19.2853 181.832
106.659 23.3161 179.936
99.6766 28.6204 181.351
50.3771 35.5014 180.569
93.6579 36.384 180.792
51.2864 38.7258 180.06
92.3894 40.4782 179.337
52.4671 40.2116 180.703
53.7673 44.8613 179.386
86.1081 48.1315 180.274
62.6971 50.0974 180.027
67.0182 48.2912 181.388
70.9166 50.8229 180.6
76.0316 53.9448 179.35
-55.0731 -103.118 180.53
-60.1038 -99.7718 182.555
-59.9765 -101.276 179.487
-11.8477 -97.5038 181.956
-63.2583 -97.1922 181.158
-65.9361 -94.8482 181.792
-5.38234 -94.2862 182.721
2.39203 -89.5763 183.341
-65.4026 -82.1634 183.267
-46.2043 -80.278 181.017
10.4682 -82.6458 181.601
-53.2391 -79.4199 181.591
-69.2447 -78.2928 181.228
-32.2681 -76.2217 180.175
-71.4111 -75.8877 180.799
-55.7125 -76.098 181.272
-67.9223 -76.3049 181.934
-64.3142 -74.3752 181.552
-28.8861 -72.5627 180.356
-67.1053 -74.2023 181.326
-26.4911 -69.8671 180.462
-24.5719 -67.4995 181.138
38.1617 -61.7071 182.639
-22.6327 -59.3563 179.733
-22.2831 -55.3184 180.484
-75.8822 -52.6026 181.06
-80.947 -51.6468 180.952
-78.2188 -51.5426 181.409
47.9097 -51.3652 182.197
-82.249 -48.2316 181.944
-85.3978 -48.5295 180.252
-70.7814 -46.141 181.626
-24.6494 -49.6139 181.206
212.603 -44.7329 180.433
201.792 -43.7978 180.503
-26.1232 -45.666 182.067
-86.7839 -44.8214 181.651
58.638 -42.4261 182.259
223.754 -41.9529 182.133
-65.4597 -41.3523 180.978
179.165 -38.5163 180.032
-65.051 -38.4223 182.371
-36.4843 -40.2181 180.517
224.583 -40.1778 182.102
174.821 -39.4833 182.835
225.519 -34.5403 180.382
-49.2267 -36.5689 180.786
-44.2274 -36.3705 181.449
224.567 -30.8308 181.065
-96.8263 -27.5504 182.686
164.232 -30.5689 181.586
84.8812 -27.7939 182.817
195.248 -25.7944 180.186
198.298 -26.0226 180.343
200.708 -27.7785 181.641
204.708 -24.6524 179.91
-61.9258 -27.2273 179.96
153.109 -24.7617 181.423
-67.7249 -22.7538 182.289
-65.8046 -25.5949 180.973
148.633 -22.1721 180.845
152.153 -23.8574 180.853
-88.2805 -21.2442 181.759
-79.6439 -21.0273 182.001
-78.4115 -25.6652 179.473
-50.3594 -23.2646 181.086
-46.6988 -23.0544 181.314
-34.5569 -22.4843 181.298
-32.1718 -23.5347 180.541
168.279 -20.9803 180.308
-92.9952 -22.6783 181.756
-37.0064 -21.6372 182.202
144.681 -21.198 181.692
-83.0439 -21.7506 181.414
-23.6709 -20.3965 181.3
-16.4183 -16.6261 182.679
-7.12719 -18.6149 181.262
130.008 -17.8824 181.42
-13.0614 -19.4131 181.068
106.832 -16.8174 180.777
117.106 -18.1769 182.526
124.102 -16.6987 181.074
5.69255 -17.2762 180.63
3.25673 -15.2352 181.759
8.20482 -16.0651 180.802
153.556 -15.3531 181.107
-179.284 -14.7623 180.226
149.276 -12.5552 180.716
-161.673 -13.058 180.305
-158.161 -11.5707 182.573
-173.688 -12.2735 181.329
-170.605 -11.1847 182.905
15.4275 -11.5389 181.392
-184.857 -10.233 181.533
-142.789 -8.31469 181.895
20.356 -8.58154 180.846
-145.111 -6.37259 181.912
22.7659 -3.85229 181.999
29.4731 -1.35499 180.617
126.401 0.695564 181.368
-183.738 0.652306 180.803
30.2762 0.600754 181.095
122.78 5.35334 179.525
-151.609 3.78829 181.861
31.9619 3.4899 182.155
-175.777 5.22237 180.424
-170.159 5.6632 181.506
