67370
-0.568627 0.356863 0.741176
-0.403922 -0.458824 0.796078
-0.560784 0.341176 0.756863
-0.796078 -0.121569 0.592157
-0.576471 0.333333 0.749020
-0.505882 -0.349020 0.788235
-0.513726 0.388235 0.764706
-0.749020 -0.262745 0.607843
-0.654902 0.247059 0.709804
-0.498039 -0.364706 0.788235
-0.521569 0.294118 0.803922
-0.733333 -0.333333 0.592157
-0.654902 0.098039 0.749020
-0.427451 -0.388235 0.819608
-0.513726 0.215686 0.835294
-0.725490 -0.380392 0.576471
-0.521569 0.192157 0.827451
-0.694118 -0.443137 0.568627
-0.529412 0.200000 0.827451
-0.670588 -0.521569 0.521569
-0.529412 0.239216 0.811765
-0.662745 -0.545098 0.513726
-0.490196 0.278431 0.827451
-0.662745 -0.568627 0.490196
-0.435294 0.301961 0.850980
-0.647059 -0.623529 0.443137
-0.435294 0.301961 0.850980
-0.615686 -0.662745 0.427451
-0.364706 0.333333 0.866667
-0.607843 -0.670588 0.427451
-0.333333 0.372549 0.866667
-0.545098 -0.741176 0.380392
-0.317647 0.403922 0.858824
-0.482353 -0.827451 0.301961
-0.286275 0.403922 0.866667
-0.450980 -0.843137 0.301961
-0.247059 0.474510 0.843137
-0.490196 -0.835294 0.231373
-0.207843 0.458824 0.866667
-0.396078 -0.898039 0.200000
-0.184314 0.474510 0.858824
-0.396078 -0.898039 0.200000
-0.192157 0.521569 0.835294
-0.403922 -0.874510 0.254902
-0.168627 0.521569 0.835294
-0.356863 -0.898039 0.254902
-0.145098 0.482353 0.866667
-0.356863 -0.898039 0.254902
-0.145098 0.482353 0.866667
-0.301961 -0.921569 0.239216
-0.090196 0.545098 0.835294
-0.301961 -0.921569 0.239216
-0.090196 0.545098 0.835294
-0.200000 -0.945098 0.247059
-0.050980 0.482353 0.874510
-0.200000 -0.945098 0.254902
-0.050980 0.482353 0.874510
-0.145098 -0.952941 0.254902
-0.050980 0.482353 0.874510
-0.145098 -0.952941 0.254902
-0.011765 0.490196 0.874510
-0.082353 -0.960784 0.278431
-0.003922 0.498039 0.866667
-0.074510 -0.960784 0.254902
-0.003922 0.498039 0.866667
-0.011765 -0.992157 0.129412
0.011765 0.498039 0.866667
-0.011765 -0.992157 0.129412
0.019608 0.505882 0.858824
0.074510 -0.992157 0.058824
0.027451 0.498039 0.866667
-0.607843 -0.239216 0.756863
-0.686275 0.184314 0.701961
-0.592157 -0.121569 0.796078
-0.529412 0.341176 0.772549
-0.411765 -0.388235 0.819608
-0.662745 0.278431 0.694118
-0.654902 -0.082353 0.749020
-0.545098 0.333333 0.772549
-0.349020 -0.443137 0.819608
-0.576471 0.388235 0.717647
-0.694118 -0.113725 0.709804
-0.560784 0.341176 0.756863
-0.600000 -0.129412 0.788235
-0.498039 0.364706 0.780392
-0.733333 -0.270588 0.623529
-0.654902 0.247059 0.709804
-0.552941 -0.513726 0.654902
-0.466667 0.301961 0.827451
-0.733333 -0.333333 0.592157
-0.654902 0.090196 0.749020
-0.254902 -0.670588 0.694118
-0.490196 0.278431 0.827451
-0.678431 -0.396078 0.623529
-0.356863 0.443137 0.819608
-0.145098 -0.654902 0.741176
-0.521569 0.192157 0.827451
-0.670588 -0.419608 0.615686
-0.325490 0.278431 0.905882
-0.278431 -0.286275 0.913725
-0.521569 0.200000 0.827451
-0.694118 -0.513726 0.513726
-0.490196 0.200000 0.850980
-0.662745 -0.545098 0.513726
-0.450980 0.254902 0.850980
-0.654902 -0.584314 0.482353
-0.435294 0.301961 0.850980
-0.631373 -0.631373 0.450980
-0.396078 0.309804 0.866667
-0.607843 -0.670588 0.427451
-0.325490 0.341176 0.882353
-0.615686 -0.678431 0.396078
-0.309804 0.356863 0.882353
-0.552941 -0.756863 0.349020
-0.278431 0.356863 0.890196
-0.490196 -0.835294 0.231373
-0.278431 0.356863 0.890196
-0.490196 -0.835294 0.231373
-0.200000 0.403922 0.890196
-0.443137 -0.866667 0.231373
-0.192157 0.396078 0.898039
-0.396078 -0.898039 0.200000
-0.184314 0.396078 0.898039
-0.396078 -0.898039 0.200000
-0.152941 0.443137 0.882353
-0.349020 -0.921569 0.192157
-0.152941 0.443137 0.882353
-0.356863 -0.905882 0.223529
-0.152941 0.450980 0.874510
-0.301961 -0.921569 0.239216
-0.098039 0.450980 0.882353
-0.301961 -0.921569 0.239216
-0.098039 0.450980 0.882353
-0.200000 -0.945098 0.247059
-0.050980 0.482353 0.874510
-0.215686 -0.952941 0.223529
-0.050980 0.482353 0.874510
-0.145098 -0.976471 0.184314
-0.050980 0.482353 0.874510
-0.137255 -0.968627 0.184314
-0.003922 0.466667 0.882353
-0.113725 -0.976471 0.160784
-0.003922 0.458824 0.890196
-0.152941 -0.976471 0.145098
0.019608 0.443137 0.898039
-0.003922 -0.992157 0.105882
0.019608 0.443137 0.898039
-0.003922 -0.992157 0.105882
0.019608 0.427451 0.905882
0.019608 -1.000000 0.019608
0.027451 0.411765 0.913725
-0.701961 -0.058824 0.709804
-0.670588 0.011765 0.741176
-0.560784 -0.294118 0.772549
-0.662745 0.192157 0.725490
-0.552941 -0.129412 0.827451
-0.521569 0.247059 0.819608
-0.498039 -0.356863 0.788235
-0.592157 0.262745 0.764706
-0.498039 -0.160784 0.850980
-0.537255 0.317647 0.780392
-0.317647 -0.396078 0.858824
-0.466667 0.427451 0.772549
-0.364706 -0.145098 0.921569
-0.529412 0.341176 0.772549
-0.466667 -0.356863 0.811765
-0.380392 0.419608 0.819608
-0.709804 -0.239216 0.662745
-0.545098 0.223529 0.803922
-0.301961 -0.647059 0.701961
-0.419608 0.341176 0.843137
-0.670588 -0.333333 0.662745
-0.521569 0.200000 0.827451
-0.152941 -0.741176 0.654902
-0.490196 0.278431 0.827451
-0.678431 -0.396078 0.623529
-0.498039 0.247059 0.827451
-0.066667 -0.733333 0.678431
-0.513726 0.207843 0.827451
-0.694118 -0.403922 0.592157
-0.262745 0.482353 0.835294
-0.011765 -0.733333 0.678431
-0.498039 0.200000 0.843137
-0.647059 -0.521569 0.560784
-0.231373 0.505882 0.827451
-0.105882 -0.584314 0.803922
-0.490196 0.207843 0.850980
-0.647059 -0.521569 0.560784
-0.184314 0.364706 0.913725
-0.223529 -0.215686 0.952941
-0.458824 0.231373 0.858824
-0.639216 -0.568627 0.521569
-0.411765 0.278431 0.866667
-0.631373 -0.615686 0.466667
-0.388235 0.309804 0.866667
-0.639216 -0.607843 0.474510
-0.294118 0.341176 0.890196
-0.568627 -0.749020 0.341176
-0.294118 0.341176 0.890196
-0.600000 -0.725490 0.349020
-0.278431 0.356863 0.890196
-0.490196 -0.835294 0.231373
-0.247059 0.349020 0.905882
-0.443137 -0.866667 0.231373
-0.215686 0.364706 0.905882
-0.396078 -0.898039 0.200000
-0.192157 0.396078 0.898039
-0.396078 -0.898039 0.200000
-0.184314 0.396078 0.898039
-0.349020 -0.921569 0.192157
-0.184314 0.396078 0.898039
-0.372549 -0.913725 0.160784
-0.145098 0.443137 0.882353
-0.301961 -0.945098 0.121569
-0.145098 0.443137 0.882353
-0.301961 -0.945098 0.121569
-0.090196 0.474510 0.874510
-0.223529 -0.968627 0.105882
-0.090196 0.474510 0.874510
-0.215686 -0.968627 0.090196
-0.011765 0.490196 0.874510
-0.200000 -0.976471 0.098039
-0.019608 0.466667 0.882353
-0.137255 -0.992157 0.050980
-0.019608 0.466667 0.882353
-0.137255 -0.992157 0.050980
0.043137 0.443137 0.898039
-0.121569 -0.992157 0.058824
0.043137 0.443137 0.898039
-0.066667 -1.000000 0.027451
0.043137 0.443137 0.898039
-0.066667 -1.000000 0.027451
0.058824 0.435294 0.898039
0.019608 -1.000000 0.019608
0.035294 0.403922 0.913725
-0.513726 -0.270588 0.811765
-0.584314 0.176471 0.796078
-0.772549 -0.050980 0.631373
-0.764706 0.082353 0.639216
-0.341176 -0.443137 0.835294
-0.584314 0.262745 0.764706
-0.341176 -0.176471 0.921569
-0.529412 0.239216 0.819608
-0.145098 -0.490196 0.858824
-0.364706 0.403922 0.835294
-0.207843 -0.184314 0.960784
-0.505882 0.341176 0.796078
-0.286275 -0.349020 0.890196
-0.364706 0.403922 0.835294
-0.686275 -0.239216 0.686275
-0.615686 0.058824 0.788235
-0.678431 -0.019608 0.741176
-0.466667 0.356863 0.811765
-0.364706 -0.505882 0.780392
-0.372549 0.309804 0.874510
-0.670588 -0.317647 0.670588
-0.435294 0.105882 0.890196
-0.145098 -0.709804 0.686275
-0.443137 0.262745 0.858824
-0.678431 -0.325490 0.654902
-0.435294 0.137255 0.890196
0.035294 -0.780392 0.623529
-0.513726 0.192157 0.835294
-0.694118 -0.403922 0.592157
-0.254902 0.200000 0.945098
0.035294 -0.780392 0.623529
-0.498039 0.215686 0.835294
-0.647059 -0.521569 0.560784
-0.184314 0.396078 0.898039
0.058824 -0.741176 0.662745
-0.490196 0.207843 0.850980
-0.670588 -0.505882 0.545098
-0.200000 0.482353 0.858824
0.129412 -0.733333 0.670588
-0.435294 0.207843 0.874510
-0.639216 -0.568627 0.521569
-0.200000 0.482353 0.858824
0.129412 -0.733333 0.670588
-0.411765 0.262745 0.874510
-0.639216 -0.607843 0.474510
-0.137255 0.513726 0.850980
0.019608 -0.505882 0.858824
-0.325490 0.286275 0.898039
-0.600000 -0.662745 0.443137
-0.160784 0.521569 0.835294
0.019608 -0.505882 0.858824
-0.301961 0.349020 0.890196
-0.607843 -0.662745 0.443137
-0.160784 0.466667 0.866667
-0.035294 -0.325490 0.945098
-0.270588 0.333333 0.905882
-0.529412 -0.796078 0.286275
-0.168627 0.419608 0.890196
-0.050980 -0.349020 0.937255
-0.247059 0.341176 0.905882
-0.443137 -0.882353 0.184314
-0.152941 0.419608 0.898039
0.003922 -0.317647 0.945098
-0.215686 0.364706 0.905882
-0.443137 -0.882353 0.184314
-0.184314 0.301961 0.937255
0.003922 -0.317647 0.945098
-0.215686 0.364706 0.905882
-0.403922 -0.905882 0.129412
-0.105882 0.325490 0.937255
-0.082353 -0.200000 0.976471
-0.215686 0.364706 0.905882
-0.403922 -0.905882 0.129412
-0.215686 0.364706 0.905882
-0.372549 -0.913725 0.160784
-0.192157 0.411765 0.890196
-0.364706 -0.913725 0.160784
-0.145098 0.435294 0.890196
-0.270588 -0.952941 0.137255
-0.145098 0.435294 0.890196
-0.309804 -0.952941 0.035294
-0.066667 0.482353 0.874510
-0.247059 -0.968627 0.003922
-0.066667 0.482353 0.874510
-0.192157 -0.984314 0.003922
0.003922 0.466667 0.882353
-0.152941 -0.984314 -0.050980
0.003922 0.466667 0.882353
-0.152941 -0.984314 -0.050980
0.074510 0.474510 0.882353
-0.145098 -0.984314 -0.050980
0.043137 0.443137 0.898039
-0.043137 -1.000000 -0.011765
0.043137 0.443137 0.898039
-0.066667 -1.000000 0.027451
0.058824 0.435294 0.898039
0.019608 -1.000000 0.019608
0.058824 0.435294 0.898039
-0.458824 -0.286275 0.843137
-0.545098 0.145098 0.827451
-0.725490 -0.066667 0.686275
-0.741176 0.113725 0.662745
-0.341176 -0.450980 0.827451
-0.552941 0.262745 0.788235
-0.372549 -0.278431 0.882353
-0.639216 0.082353 0.764706
-0.513726 -0.090196 0.850980
-0.505882 0.129412 0.850980
-0.137255 -0.482353 0.866667
-0.419608 0.349020 0.835294
-0.207843 -0.349020 0.913725
-0.490196 0.262745 0.835294
0.035294 -0.474510 0.882353
-0.278431 0.411765 0.866667
-0.631373 -0.145098 0.764706
-0.811765 0.074510 0.576471
-0.349020 -0.231373 0.905882
-0.450980 0.356863 0.819608
-0.411765 -0.388235 0.827451
-0.490196 0.192157 0.850980
0.098039 -0.474510 0.874510
-0.333333 0.372549 0.866667
-0.639216 -0.270588 0.725490
-0.466667 0.294118 0.835294
-0.121569 -0.647059 0.749020
-0.356863 0.215686 0.913725
-0.027451 -0.278431 0.960784
-0.443137 0.247059 0.858824
-0.670588 -0.317647 0.670588
-0.419608 0.137255 0.898039
-0.027451 -0.709804 0.709804
-0.498039 0.215686 0.843137
-0.678431 -0.380392 0.623529
-0.333333 0.200000 0.921569
0.019608 -0.756863 0.654902
-0.498039 0.223529 0.835294
-0.662745 -0.498039 0.560784
-0.192157 0.215686 0.960784
0.137255 -0.764706 0.631373
-0.450980 0.239216 0.858824
-0.670588 -0.505882 0.545098
-0.192157 0.215686 0.960784
0.176471 -0.772549 0.607843
-0.411765 0.215686 0.890196
-0.662745 -0.552941 0.505882
-0.113725 0.152941 0.984314
0.176471 -0.780392 0.600000
-0.380392 0.231373 0.898039
-0.639216 -0.607843 0.474510
-0.113725 0.152941 0.984314
0.176471 -0.780392 0.600000
-0.270588 0.254902 0.929412
-0.600000 -0.654902 0.450980
-0.129412 0.262745 0.960784
0.105882 -0.749020 0.654902
-0.247059 0.278431 0.929412
-0.584314 -0.717647 0.388235
-0.090196 0.200000 0.976471
0.082353 -0.631373 0.772549
-0.247059 0.309804 0.921569
-0.529412 -0.796078 0.286275
-0.082353 0.168627 0.984314
-0.019608 -0.607843 0.796078
-0.223529 0.317647 0.921569
-0.443137 -0.882353 0.184314
-0.098039 0.309804 0.945098
-0.019608 -0.607843 0.796078
0.286275 0.129412 0.952941
0.074510 -0.364706 0.929412
-0.207843 0.333333 0.921569
-0.474510 -0.858824 0.184314
-0.050980 0.309804 0.945098
-0.066667 -0.615686 0.788235
0.364706 0.317647 0.874510
-0.058824 -0.356863 0.929412
-0.207843 0.333333 0.921569
-0.403922 -0.905882 0.129412
-0.090196 0.333333 0.937255
-0.066667 -0.247059 0.968627
0.380392 0.333333 0.858824
-0.145098 -0.341176 0.929412
-0.207843 0.333333 0.921569
-0.403922 -0.905882 0.129412
-0.121569 0.247059 0.960784
-0.098039 -0.152941 0.984314
0.317647 0.278431 0.905882
-0.403922 -0.458824 0.788235
-0.215686 0.325490 0.921569
-0.396078 -0.921569 0.019608
-0.498039 0.325490 0.803922
-0.192157 -0.168627 0.968627
0.058824 0.121569 0.992157
-0.396078 -0.513726 0.756863
-0.207843 0.356863 0.913725
-0.286275 -0.960784 -0.019608
0.145098 0.309804 0.937255
-0.482353 -0.380392 0.788235
-0.137255 0.372549 0.913725
-0.286275 -0.960784 -0.019608
-0.286275 0.317647 0.905882
-0.537255 -0.152941 0.827451
-0.113725 0.403922 0.905882
-0.247059 -0.968627 0.003922
-0.098039 0.403922 0.913725
-0.247059 -0.968627 -0.050980
0.027451 0.435294 0.898039
-0.152941 -0.984314 -0.050980
0.058824 0.403922 0.913725
-0.152941 -0.984314 -0.050980
0.098039 0.396078 0.913725
-0.145098 -0.984314 -0.050980
0.098039 0.396078 0.913725
-0.043137 -1.000000 -0.011765
0.098039 0.396078 0.913725
-0.074510 -0.992157 -0.082353
0.043137 0.364706 0.929412
0.050980 -1.000000 -0.058824
0.043137 0.364706 0.929412
-0.678431 -0.207843 0.701961
-0.749020 0.121569 0.647059
-0.278431 -0.254902 0.921569
-0.458824 0.137255 0.874510
-0.560784 -0.333333 0.756863
-0.686275 0.168627 0.709804
-0.050980 -0.482353 0.874510
-0.309804 0.349020 0.882353
-0.364706 -0.458824 0.811765
-0.474510 0.137255 0.866667
0.027451 -0.576471 0.819608
-0.247059 0.388235 0.882353
-0.647059 -0.074510 0.756863
-0.866667 0.152941 0.474510
-0.443137 -0.380392 0.811765
-0.450980 0.364706 0.819608
0.035294 -0.647059 0.764706
-0.286275 0.356863 0.890196
-0.662745 -0.254902 0.701961
-0.474510 0.325490 0.819608
-0.152941 -0.458824 0.874510
-0.364706 0.192157 0.913725
0.050980 -0.654902 0.756863
-0.466667 0.262745 0.843137
-0.670588 -0.317647 0.670588
-0.380392 0.333333 0.866667
0.019608 -0.654902 0.756863
-0.160784 0.443137 0.882353
0.050980 -0.654902 0.756863
-0.505882 0.207843 0.835294
-0.686275 -0.427451 0.592157
-0.388235 0.129412 0.913725
0.129412 -0.725490 0.678431
0.027451 0.466667 0.882353
-0.058824 -0.725490 0.686275
-0.529412 0.192157 0.827451
-0.662745 -0.498039 0.560784
-0.388235 0.168627 0.905882
0.121569 -0.725490 0.670588
0.027451 0.466667 0.882353
-0.254902 -0.725490 0.639216
-0.458824 0.270588 0.843137
-0.694118 -0.482353 0.529412
-0.254902 0.372549 0.890196
0.121569 -0.725490 0.670588
0.043137 0.466667 0.882353
-0.184314 -0.701961 0.686275
-0.388235 0.239216 0.890196
-0.662745 -0.560784 0.490196
-0.192157 0.450980 0.874510
0.160784 -0.780392 0.607843
0.066667 0.443137 0.898039
-0.192157 -0.694118 0.694118
-0.364706 0.207843 0.905882
-0.647059 -0.600000 0.474510
-0.176471 0.482353 0.858824
0.160784 -0.749020 0.647059
0.231373 0.427451 0.874510
-0.090196 -0.654902 0.756863
-0.262745 0.262745 0.929412
-0.647059 -0.623529 0.435294
-0.184314 0.450980 0.874510
0.160784 -0.749020 0.647059
0.349020 0.450980 0.827451
-0.082353 -0.733333 0.678431
-0.262745 0.262745 0.929412
-0.623529 -0.678431 0.388235
-0.152941 0.474510 0.866667
0.184314 -0.537255 0.819608
0.372549 0.396078 0.843137
-0.082353 -0.733333 0.678431
-0.200000 0.270588 0.937255
-0.513726 -0.811765 0.278431
-0.152941 0.474510 0.866667
-0.137255 -0.803922 0.576471
-0.200000 0.270588 0.937255
-0.482353 -0.866667 0.129412
-0.137255 0.482353 0.866667
-0.168627 -0.662745 0.733333
-0.200000 0.270588 0.937255
-0.443137 -0.898039 0.035294
-0.137255 0.482353 0.866667
-0.450980 -0.678431 0.576471
-0.160784 0.270588 0.952941
-0.435294 -0.898039 0.027451
-0.168627 0.490196 0.858824
-0.513726 -0.584314 0.623529
-0.160784 0.270588 0.952941
-0.364706 -0.929412 -0.019608
-0.309804 0.474510 0.819608
-0.529412 -0.584314 0.607843
-0.160784 0.270588 0.952941
-0.396078 -0.921569 0.019608
-0.639216 0.137255 0.756863
-0.568627 -0.560784 0.600000
-0.098039 0.278431 0.952941
-0.286275 -0.960784 -0.019608
-0.592157 0.215686 0.780392
-0.568627 -0.529412 0.631373
-0.098039 0.278431 0.952941
-0.317647 -0.945098 -0.058824
-0.639216 0.380392 0.670588
-0.615686 -0.294118 0.733333
-0.121569 0.270588 0.952941
-0.247059 -0.968627 -0.050980
0.003922 0.270588 0.960784
-0.152941 -0.984314 -0.050980
0.043137 0.270588 0.960784
-0.152941 -0.984314 -0.050980
0.074510 0.286275 0.952941
-0.066667 -0.992157 -0.090196
0.082353 0.278431 0.952941
-0.074510 -0.992157 -0.082353
0.066667 0.278431 0.960784
-0.074510 -0.992157 -0.082353
0.003922 0.278431 0.960784
0.050980 -1.000000 -0.058824
0.003922 0.278431 0.960784
-0.694118 -0.200000 0.694118
-0.701961 0.129412 0.701961
-0.372549 -0.466667 0.803922
-0.686275 0.168627 0.709804
-0.294118 -0.247059 0.921569
-0.325490 0.145098 0.937255
-0.866667 -0.050980 0.498039
-0.945098 0.066667 0.325490
-0.364706 -0.458824 0.811765
-0.615686 0.145098 0.772549
-0.050980 -0.623529 0.780392
-0.262745 0.301961 0.913725
-0.639216 -0.058824 0.764706
-0.890196 0.247059 0.388235
-0.576471 -0.294118 0.764706
-0.396078 0.113725 0.913725
-0.058824 -0.607843 0.796078
-0.317647 0.317647 0.890196
-0.662745 -0.254902 0.701961
-0.372549 0.364706 0.850980
-0.145098 -0.811765 0.568627
-0.466667 0.239216 0.850980
-0.694118 -0.254902 0.678431
-0.317647 0.309804 0.898039
-0.145098 -0.811765 0.568627
-0.513726 0.231373 0.827451
-0.686275 -0.427451 0.592157
-0.333333 0.286275 0.898039
0.027451 -0.529412 0.850980
-0.043137 0.286275 0.960784
-0.215686 -0.796078 0.560784
-0.545098 0.184314 0.819608
-0.694118 -0.482353 0.529412
-0.286275 0.262745 0.921569
0.027451 -0.529412 0.850980
0.027451 0.333333 0.945098
-0.215686 -0.796078 0.560784
-0.466667 0.270588 0.843137
-0.694118 -0.482353 0.529412
-0.254902 0.152941 0.952941
0.113725 -0.654902 0.749020
0.129412 0.254902 0.960784
-0.184314 -0.803922 0.560784
-0.396078 0.325490 0.858824
-0.662745 -0.560784 0.490196
-0.262745 0.129412 0.952941
0.145098 -0.482353 0.858824
0.192157 0.270588 0.945098
-0.200000 -0.890196 0.411765
-0.317647 0.364706 0.874510
-0.701961 -0.552941 0.450980
-0.168627 0.419608 0.890196
-0.200000 -0.890196 0.411765
-0.223529 0.294118 0.929412
-0.686275 -0.600000 0.411765
-0.168627 0.419608 0.890196
-0.215686 -0.929412 0.301961
-0.223529 0.294118 0.929412
-0.623529 -0.701961 0.341176
-0.176471 0.450980 0.874510
-0.215686 -0.929412 0.301961
-0.215686 0.309804 0.929412
-0.584314 -0.788235 0.200000
-0.168627 0.411765 0.890196
-0.231373 -0.945098 0.239216
-0.215686 0.309804 0.929412
-0.545098 -0.827451 0.137255
-0.145098 0.505882 0.850980
-0.403922 -0.913725 0.074510
-0.137255 0.247059 0.960784
-0.443137 -0.898039 0.035294
-0.184314 0.505882 0.843137
-0.545098 -0.725490 0.419608
-0.137255 0.247059 0.960784
-0.458824 -0.890196 0.019608
-0.215686 0.505882 0.835294
-0.552941 -0.631373 0.545098
-0.137255 0.247059 0.960784
-0.364706 -0.929412 -0.019608
-0.513726 0.427451 0.741176
-0.623529 -0.623529 0.474510
-0.066667 0.239216 0.968627
-0.301961 -0.945098 -0.098039
-0.772549 0.152941 0.615686
-0.631373 -0.584314 0.505882
-0.011765 0.223529 0.976471
-0.317647 -0.945098 -0.058824
-0.694118 0.317647 0.647059
-0.584314 -0.600000 0.545098
-0.011765 0.223529 0.976471
-0.262745 -0.960784 -0.121569
-0.717647 0.364706 0.600000
-0.670588 -0.325490 0.670588
0.003922 0.231373 0.976471
-0.200000 -0.968627 -0.113725
0.019608 0.192157 0.984314
-0.168627 -0.976471 -0.121569
0.019608 0.231373 0.968627
-0.066667 -0.992157 -0.090196
0.019608 0.247059 0.968627
-0.066667 -0.992157 -0.090196
0.019608 0.247059 0.968627
-0.011765 -1.000000 -0.066667
-0.003922 0.254902 0.968627
0.050980 -1.000000 -0.066667
-0.019608 0.239216 0.968627
-0.560784 -0.223529 0.796078
-0.701961 0.129412 0.701961
-0.325490 -0.466667 0.819608
-0.654902 0.215686 0.725490
-0.647059 -0.278431 0.709804
-0.921569 0.247059 0.294118
-0.286275 -0.443137 0.850980
-0.600000 0.286275 0.749020
-0.286275 -0.356863 0.890196
-0.419608 0.074510 0.905882
-0.372549 -0.356863 0.858824
-0.443137 0.192157 0.874510
-0.231373 -0.639216 0.733333
-0.349020 0.215686 0.913725
-0.647059 -0.192157 0.733333
-0.341176 0.074510 0.937255
-0.176471 -0.717647 0.670588
-0.458824 0.254902 0.850980
-0.733333 -0.231373 0.639216
-0.286275 0.168627 0.945098
-0.333333 -0.686275 0.639216
-0.513726 0.231373 0.827451
-0.709804 -0.403922 0.576471
-0.309804 0.270588 0.913725
-0.270588 -0.835294 0.474510
-0.545098 0.184314 0.819608
-0.694118 -0.450980 0.560784
-0.309804 0.286275 0.905882
-0.270588 -0.835294 0.474510
-0.466667 0.270588 0.843137
-0.670588 -0.529412 0.513726
-0.309804 0.301961 0.905882
-0.200000 -0.898039 0.396078
-0.356863 0.388235 0.850980
-0.701961 -0.529412 0.482353
-0.278431 0.325490 0.905882
-0.286275 -0.905882 0.301961
-0.301961 0.450980 0.843137
-0.686275 -0.600000 0.411765
-0.262745 0.325490 0.905882
-0.215686 -0.929412 0.294118
-0.239216 0.403922 0.882353
-0.733333 -0.600000 0.325490
-0.254902 0.356863 0.898039
-0.309804 -0.937255 0.145098
-0.223529 0.396078 0.890196
-0.670588 -0.670588 0.317647
-0.301961 0.262745 0.913725
-0.270588 -0.952941 0.137255
-0.200000 0.411765 0.890196
-0.654902 -0.725490 0.207843
-0.270588 0.301961 0.913725
-0.356863 -0.898039 0.254902
-0.090196 0.396078 0.913725
-0.545098 -0.835294 0.074510
-0.239216 0.380392 0.890196
-0.356863 -0.898039 0.254902
-0.090196 0.388235 0.913725
-0.466667 -0.882353 -0.011765
-0.380392 0.498039 0.780392
-0.513726 -0.811765 0.294118
-0.074510 0.317647 0.945098
-0.396078 -0.913725 -0.058824
-0.607843 0.498039 0.615686
-0.600000 -0.717647 0.356863
-0.074510 0.317647 0.945098
-0.301961 -0.945098 -0.098039
-0.780392 0.317647 0.537255
-0.647059 -0.662745 0.372549
-0.074510 0.317647 0.945098
-0.294118 -0.952941 -0.090196
-0.741176 0.254902 0.615686
-0.600000 -0.670588 0.435294
-0.019608 0.301961 0.952941
-0.262745 -0.960784 -0.121569
-0.709804 0.372549 0.600000
-0.529412 -0.631373 0.560784
0.003922 0.325490 0.945098
-0.200000 -0.968627 -0.113725
-0.749020 0.286275 0.600000
-0.670588 -0.325490 0.670588
0.003922 0.325490 0.945098
-0.105882 -0.992157 -0.090196
0.011765 0.325490 0.945098
-0.066667 -0.992157 -0.090196
0.003922 0.294118 0.952941
-0.066667 -0.992157 -0.090196
0.003922 0.294118 0.952941
-0.027451 -1.000000 -0.058824
-0.019608 0.325490 0.945098
0.050980 -1.000000 -0.066667
-0.043137 0.317647 0.945098
-0.545098 -0.207843 0.811765
-0.694118 0.129412 0.709804
-0.811765 -0.168627 0.552941
-0.929412 0.176471 0.317647
-0.239216 -0.490196 0.843137
-0.654902 0.215686 0.725490
-0.364706 -0.513726 0.780392
-0.874510 0.262745 0.411765
-0.090196 -0.466667 0.882353
-0.600000 0.286275 0.749020
-0.294118 -0.466667 0.827451
-0.756863 0.254902 0.600000
-0.458824 -0.129412 0.882353
-0.576471 0.356863 0.733333
-0.717647 -0.168627 0.678431
-0.490196 0.200000 0.843137
-0.333333 -0.396078 0.858824
-0.568627 0.380392 0.733333
-0.411765 -0.505882 0.756863
-0.435294 0.184314 0.882353
-0.733333 -0.231373 0.639216
-0.490196 0.294118 0.819608
-0.333333 -0.686275 0.639216
-0.513726 0.200000 0.835294
-0.709804 -0.380392 0.592157
-0.403922 0.270588 0.874510
-0.333333 -0.701961 0.639216
-0.521569 0.184314 0.835294
-0.725490 -0.450980 0.521569
-0.333333 0.239216 0.913725
-0.380392 -0.819608 0.427451
-0.466667 0.254902 0.843137
-0.709804 -0.505882 0.482353
-0.356863 0.239216 0.905882
-0.349020 -0.866667 0.364706
-0.411765 0.309804 0.858824
-0.741176 -0.529412 0.419608
-0.364706 0.317647 0.874510
-0.364706 -0.874510 0.325490
-0.239216 0.443137 0.866667
-0.733333 -0.600000 0.325490
-0.349020 0.388235 0.850980
-0.309804 -0.929412 0.200000
-0.215686 0.450980 0.866667
-0.678431 -0.686275 0.270588
-0.356863 0.388235 0.850980
-0.286275 -0.937255 0.207843
-0.215686 0.450980 0.866667
-0.623529 -0.756863 0.200000
-0.498039 0.443137 0.749020
-0.341176 -0.921569 0.184314
-0.105882 0.474510 0.874510
-0.545098 -0.835294 0.074510
-0.513726 0.443137 0.741176
-0.349020 -0.921569 0.176471
-0.050980 0.435294 0.898039
-0.466667 -0.882353 -0.011765
-0.631373 0.458824 0.623529
-0.403922 -0.890196 0.223529
-0.035294 0.427451 0.905882
-0.474510 -0.882353 -0.011765
-0.607843 0.474510 0.639216
-0.537255 -0.796078 0.286275
-0.003922 0.435294 0.898039
-0.396078 -0.913725 -0.058824
-0.756863 0.427451 0.498039
-0.647059 -0.662745 0.372549
-0.003922 0.388235 0.921569
-0.294118 -0.952941 -0.090196
-0.835294 0.200000 0.513726
-0.560784 -0.694118 0.450980
-0.003922 0.388235 0.921569
-0.294118 -0.952941 -0.090196
-0.788235 0.286275 0.545098
-0.505882 -0.701961 0.505882
-0.003922 0.356863 0.929412
-0.215686 -0.968627 -0.121569
-0.725490 0.372549 0.584314
-0.537255 -0.513726 0.670588
-0.003922 0.356863 0.929412
-0.105882 -0.992157 -0.090196
-0.717647 0.270588 0.639216
-0.686275 -0.309804 0.662745
0.019608 0.364706 0.929412
-0.066667 -0.992157 -0.090196
0.019608 0.364706 0.929412
-0.027451 -1.000000 -0.058824
0.011765 0.388235 0.921569
-0.050980 -0.992157 -0.113725
-0.027451 0.372549 0.929412
0.066667 -0.992157 -0.066667
-0.035294 0.372549 0.929412
-0.529412 -0.137255 0.835294
-0.600000 0.113725 0.796078
-0.725490 -0.278431 0.631373
-0.866667 0.349020 0.356863
-0.184314 -0.270588 0.945098
-0.647059 0.192157 0.733333
-0.294118 -0.576471 0.764706
-0.780392 0.396078 0.482353
0.105882 -0.411765 0.905882
-0.631373 0.294118 0.717647
-0.301961 -0.498039 0.811765
-0.749020 0.325490 0.568627
-0.129412 -0.262745 0.952941
-0.592157 0.380392 0.709804
-0.717647 -0.168627 0.678431
-0.576471 0.145098 0.803922
-0.356863 -0.490196 0.796078
-0.560784 0.396078 0.725490
-0.725490 -0.286275 0.631373
-0.474510 0.231373 0.850980
-0.607843 -0.200000 0.764706
-0.545098 0.380392 0.749020
-0.388235 -0.403922 0.827451
-0.427451 0.152941 0.890196
-0.733333 -0.356863 0.576471
-0.505882 0.364706 0.780392
-0.333333 -0.513726 0.788235
-0.458824 0.152941 0.874510
-0.709804 -0.474510 0.521569
-0.505882 0.364706 0.788235
-0.427451 -0.764706 0.490196
-0.474510 0.262745 0.843137
-0.733333 -0.474510 0.482353
-0.505882 0.364706 0.788235
-0.364706 -0.803922 0.466667
-0.356863 0.356863 0.866667
-0.756863 -0.505882 0.411765
-0.545098 0.388235 0.741176
-0.349020 -0.843137 0.419608
-0.254902 0.403922 0.874510
-0.733333 -0.584314 0.349020
-0.505882 0.372549 0.780392
-0.325490 -0.858824 0.403922
-0.184314 0.458824 0.866667
-0.678431 -0.686275 0.270588
-0.513726 0.443137 0.741176
-0.278431 -0.913725 0.301961
-0.129412 0.450980 0.882353
-0.654902 -0.725490 0.207843
-0.631373 0.450980 0.631373
-0.372549 -0.866667 0.333333
-0.090196 0.466667 0.882353
-0.592157 -0.796078 0.098039
-0.631373 0.450980 0.623529
-0.341176 -0.913725 0.215686
-0.011765 0.474510 0.882353
-0.474510 -0.882353 -0.011765
-0.709804 0.458824 0.537255
-0.450980 -0.835294 0.309804
0.043137 0.466667 0.882353
-0.349020 -0.937255 -0.027451
-0.756863 0.427451 0.498039
-0.380392 -0.788235 0.490196
0.043137 0.466667 0.882353
-0.301961 -0.952941 -0.027451
-0.858824 0.333333 0.388235
-0.482353 -0.654902 0.584314
0.019608 0.435294 0.898039
-0.294118 -0.952941 -0.043137
-0.803922 0.239216 0.545098
-0.396078 -0.709804 0.584314
0.011765 0.427451 0.905882
-0.152941 -0.984314 0.003922
-0.741176 0.333333 0.584314
-0.450980 -0.662745 0.600000
0.011765 0.388235 0.921569
-0.152941 -0.984314 0.003922
-0.709804 0.380392 0.592157
-0.450980 -0.662745 0.600000
0.011765 0.388235 0.921569
-0.050980 -0.992157 -0.113725
-0.725490 0.200000 0.662745
-0.600000 -0.239216 0.764706
0.011765 0.388235 0.921569
-0.050980 -0.992157 -0.113725
0.011765 0.388235 0.921569
0.035294 -1.000000 -0.050980
0.019608 0.380392 0.929412
0.035294 -1.000000 -0.050980
-0.011765 0.372549 0.929412
-0.803922 -0.152941 0.576471
-0.866667 0.278431 0.411765
-0.443137 -0.482353 0.756863
-0.694118 0.443137 0.560784
-0.168627 -0.325490 0.929412
-0.576471 0.105882 0.811765
-0.176471 -0.552941 0.819608
-0.670588 0.427451 0.607843
0.105882 -0.356863 0.929412
-0.607843 0.247059 0.756863
-0.278431 -0.466667 0.843137
-0.756863 0.325490 0.568627
0.105882 -0.356863 0.929412
-0.560784 0.380392 0.741176
-0.717647 -0.168627 0.678431
-0.607843 0.113725 0.788235
-0.474510 -0.380392 0.796078
-0.647059 0.254902 0.717647
0.176471 -0.349020 0.921569
-0.560784 0.396078 0.725490
-0.725490 -0.286275 0.631373
-0.545098 0.286275 0.788235
-0.670588 -0.254902 0.701961
-0.537255 0.396078 0.741176
-0.741176 -0.396078 0.537255
-0.545098 0.396078 0.741176
-0.427451 -0.301961 0.850980
-0.356863 0.168627 0.921569
-0.741176 -0.403922 0.537255
-0.545098 0.388235 0.741176
-0.466667 -0.654902 0.592157
-0.254902 0.082353 0.960784
-0.772549 -0.443137 0.450980
-0.545098 0.388235 0.741176
-0.356863 -0.780392 0.505882
-0.364706 0.254902 0.890196
-0.756863 -0.505882 0.411765
-0.545098 0.388235 0.741176
-0.356863 -0.780392 0.505882
-0.239216 0.372549 0.898039
-0.749020 -0.576471 0.309804
-0.623529 0.411765 0.662745
-0.262745 -0.803922 0.529412
-0.137255 0.435294 0.890196
-0.694118 -0.678431 0.247059
-0.607843 0.419608 0.670588
-0.262745 -0.803922 0.529412
-0.082353 0.419608 0.905882
-0.654902 -0.725490 0.215686
-0.717647 0.443137 0.537255
-0.309804 -0.772549 0.560784
-0.050980 0.458824 0.890196
-0.545098 -0.827451 0.152941
-0.709804 0.450980 0.537255
-0.262745 -0.639216 0.725490
0.043137 0.466667 0.882353
-0.419608 -0.890196 0.152941
-0.772549 0.419608 0.474510
-0.215686 -0.615686 0.756863
0.043137 0.466667 0.882353
-0.294118 -0.952941 0.066667
-0.819608 0.388235 0.427451
-0.215686 -0.615686 0.756863
0.058824 0.466667 0.882353
-0.294118 -0.952941 0.066667
-0.874510 0.223529 0.435294
-0.317647 -0.513726 0.796078
0.058824 0.466667 0.882353
-0.223529 -0.976471 0.027451
-0.796078 0.349020 0.490196
-0.278431 -0.450980 0.850980
0.011765 0.427451 0.905882
-0.105882 -0.992157 -0.027451
-0.749020 0.411765 0.513726
-0.286275 -0.498039 0.819608
0.058824 0.419608 0.905882
-0.105882 -0.992157 -0.027451
-0.749020 0.380392 0.545098
-0.262745 -0.490196 0.827451
0.058824 0.403922 0.913725
-0.019608 -1.000000 0.019608
-0.709804 0.286275 0.647059
-0.396078 -0.333333 0.858824
0.058824 0.403922 0.913725
0.035294 -1.000000 -0.050980
0.058824 0.403922 0.913725
0.035294 -1.000000 -0.050980
0.019608 0.301961 0.952941
-0.662745 -0.247059 0.709804
-0.749020 0.333333 0.576471
-0.105882 -0.537255 0.835294
-0.670588 0.356863 0.654902
-0.105882 -0.537255 0.835294
-0.749020 0.356863 0.560784
-0.113725 -0.152941 0.984314
-0.584314 0.145098 0.796078
-0.215686 -0.466667 0.858824
-0.772549 0.309804 0.552941
0.027451 -0.247059 0.968627
-0.521569 0.325490 0.788235
-0.694118 -0.058824 0.717647
-0.654902 0.027451 0.756863
-0.654902 -0.270588 0.701961
-0.670588 0.254902 0.694118
0.066667 -0.270588 0.960784
-0.521569 0.372549 0.764706
-0.733333 -0.247059 0.631373
-0.623529 0.254902 0.741176
-0.701961 -0.223529 0.670588
-0.592157 0.364706 0.717647
0.050980 -0.294118 0.952941
-0.529412 0.372549 0.764706
-0.733333 -0.356863 0.584314
-0.505882 0.247059 0.827451
-0.011765 -0.254902 0.968627
-0.537255 0.380392 0.749020
-0.764706 -0.419608 0.490196
-0.545098 0.396078 0.741176
-0.294118 -0.121569 0.945098
-0.239216 0.066667 0.968627
-0.772549 -0.443137 0.450980
-0.592157 0.388235 0.709804
-0.176471 -0.301961 0.937255
-0.129412 0.192157 0.976471
-0.756863 -0.560784 0.341176
-0.631373 0.356863 0.694118
-0.145098 -0.356863 0.921569
-0.145098 0.160784 0.976471
-0.701961 -0.639216 0.301961
-0.607843 0.419608 0.670588
-0.105882 -0.325490 0.937255
-0.145098 0.160784 0.976471
-0.231373 -0.066667 0.968627
-0.113725 0.160784 0.976471
-0.647059 -0.725490 0.223529
-0.694118 0.403922 0.592157
-0.058824 -0.435294 0.898039
-0.121569 0.325490 0.937255
-0.552941 -0.811765 0.184314
-0.709804 0.427451 0.560784
-0.074510 -0.443137 0.898039
0.003922 0.396078 0.921569
-0.411765 -0.898039 0.129412
-0.772549 0.427451 0.474510
-0.011765 -0.239216 0.968627
0.035294 0.435294 0.898039
-0.419608 -0.890196 0.152941
-0.819608 0.388235 0.427451
-0.074510 -0.184314 0.976471
0.035294 0.435294 0.898039
-0.309804 -0.952941 0.058824
-0.858824 0.333333 0.388235
-0.239216 -0.341176 0.905882
0.090196 0.419608 0.905882
-0.223529 -0.976471 0.027451
-0.858824 0.372549 0.349020
-0.239216 -0.341176 0.905882
0.098039 0.380392 0.921569
-0.152941 -0.984314 0.074510
-0.827451 0.450980 0.349020
-0.145098 -0.341176 0.929412
0.129412 0.372549 0.921569
-0.105882 -0.992157 0.043137
-0.788235 0.427451 0.435294
0.027451 -0.207843 0.976471
0.129412 0.286275 0.952941
-0.035294 -0.992157 0.082353
-0.717647 0.411765 0.568627
-0.027451 -0.239216 0.968627
0.137255 0.231373 0.960784
-0.027451 -1.000000 0.066667
-0.647059 0.513726 0.560784
0.090196 -0.098039 0.992157
0.129412 0.176471 0.976471
0.019608 -1.000000 0.074510
-0.396078 0.152941 0.905882
-0.090196 -0.152941 0.984314
0.176471 0.105882 0.976471
-0.435294 -0.349020 0.827451
-0.576471 0.317647 0.749020
-0.050980 -0.521569 0.850980
-0.717647 0.349020 0.600000
-0.074510 -0.490196 0.866667
-0.788235 0.325490 0.521569
-0.380392 -0.388235 0.843137
-0.796078 0.356863 0.490196
-0.294118 -0.129412 0.945098
-0.482353 0.184314 0.858824
-0.654902 -0.270588 0.701961
-0.678431 0.427451 0.600000
-0.043137 -0.286275 0.960784
-0.482353 0.341176 0.811765
-0.741176 -0.262745 0.623529
-0.615686 0.207843 0.764706
-0.694118 -0.215686 0.686275
-0.592157 0.466667 0.654902
0.011765 -0.341176 0.937255
-0.490196 0.364706 0.796078
-0.764706 -0.309804 0.560784
-0.584314 0.388235 0.717647
0.011765 -0.341176 0.937255
-0.505882 0.341176 0.796078
-0.764706 -0.419608 0.490196
-0.545098 0.349020 0.764706
-0.160784 -0.317647 0.937255
-0.513726 0.364706 0.780392
-0.780392 -0.466667 0.411765
-0.419608 0.223529 0.882353
-0.615686 -0.239216 0.749020
-0.600000 0.309804 0.733333
-0.733333 -0.584314 0.349020
-0.654902 0.356863 0.670588
-0.670588 -0.670588 0.301961
-0.694118 0.403922 0.592157
-0.584314 -0.749020 0.309804
-0.741176 0.364706 0.560784
-0.396078 -0.905882 0.168627
-0.772549 0.372549 0.513726
-0.396078 -0.905882 0.168627
-0.835294 0.364706 0.411765
-0.317647 -0.937255 0.121569
-0.858824 0.333333 0.388235
-0.223529 -0.960784 0.152941
-0.866667 0.325490 0.380392
-0.003922 -0.019608 1.000000
-0.043137 0.035294 1.000000
-0.160784 -0.984314 0.098039
-0.858824 0.372549 0.356863
-0.050980 -0.984314 0.176471
-0.850980 0.450980 0.270588
-0.050980 -0.984314 0.176471
-0.803922 0.545098 0.239216
-0.035294 -0.992157 0.082353
-0.701961 0.639216 0.325490
0.019608 -1.000000 0.074510
-0.427451 0.662745 0.615686
-0.388235 -0.294118 0.874510
-0.552941 0.176471 0.811765
-0.043137 -0.592157 0.803922
-0.803922 0.278431 0.521569
-0.019608 -0.568627 0.819608
-0.843137 0.341176 0.419608
-0.074510 -0.474510 0.882353
-0.803922 0.403922 0.443137
-0.662745 -0.223529 0.717647
-0.592157 0.568627 0.568627
-0.725490 -0.184314 0.662745
-0.607843 0.207843 0.764706
-0.694118 -0.207843 0.686275
-0.592157 0.568627 0.568627
-0.050980 -0.184314 0.984314
-0.254902 0.129412 0.960784
-0.764706 -0.309804 0.568627
-0.568627 0.482353 0.662745
-0.066667 -0.215686 0.976471
-0.333333 0.223529 0.913725
-0.803922 -0.372549 0.466667
-0.521569 0.498039 0.694118
-0.137255 -0.294118 0.945098
-0.349020 0.192157 0.913725
-0.764706 -0.482353 0.427451
-0.529412 0.356863 0.772549
-0.952941 -0.207843 0.239216
-0.631373 0.223529 0.749020
-0.733333 -0.576471 0.364706
-0.717647 0.309804 0.623529
-0.662745 -0.678431 0.325490
-0.749020 0.364706 0.552941
-0.560784 -0.772549 0.286275
-0.756863 0.349020 0.552941
-0.443137 -0.858824 0.254902
-0.803922 0.349020 0.482353
-0.349020 -0.921569 0.152941
-0.858824 0.317647 0.411765
-0.184314 -0.945098 0.254902
-0.866667 0.317647 0.380392
-0.113725 -0.960784 0.254902
-0.905882 0.333333 0.270588
-0.082353 -0.976471 0.192157
-0.874510 0.443137 0.200000
-0.050980 -0.984314 0.176471
-0.803922 0.545098 0.239216
-0.066667 -0.984314 0.152941
-0.694118 0.639216 0.325490
0.019608 -0.984314 0.160784
-0.631373 0.670588 0.388235
-0.050980 -0.458824 0.882353
-0.843137 0.247059 0.482353
-0.105882 -0.615686 0.780392
-0.827451 0.372549 0.411765
-0.254902 -0.725490 0.631373
-0.694118 0.545098 0.474510
-0.662745 -0.223529 0.717647
-0.584314 0.309804 0.749020
-0.419608 -0.662745 0.623529
-0.584314 0.568627 0.576471
-0.764706 -0.207843 0.607843
-0.592157 0.184314 0.788235
-0.717647 -0.145098 0.678431
-0.568627 0.584314 0.576471
-0.803922 -0.317647 0.505882
-0.537255 0.568627 0.623529
-0.803922 -0.372549 0.458824
-0.505882 0.498039 0.701961
-0.952941 -0.254902 0.176471
-0.905882 0.176471 0.388235
-0.733333 -0.576471 0.364706
-0.725490 0.066667 0.678431
-0.662745 -0.678431 0.325490
-0.756863 0.294118 0.592157
-0.584314 -0.749020 0.309804
-0.733333 0.341176 0.592157
-0.419608 -0.858824 0.301961
-0.780392 0.341176 0.521569
-0.317647 -0.874510 0.372549
-0.850980 0.301961 0.427451
-0.247059 -0.905882 0.341176
-0.882353 0.270588 0.388235
-0.223529 -0.905882 0.364706
-0.882353 0.325490 0.349020
-0.105882 -0.945098 0.301961
-0.898039 0.380392 0.231373
-0.066667 -0.945098 0.317647
-0.796078 0.552941 0.239216
-0.066667 -0.945098 0.317647
-0.717647 0.639216 0.270588
-0.003922 -0.960784 0.286275
-0.631373 0.670588 0.388235
-0.513726 -0.262745 0.811765
-0.843137 0.309804 0.443137
-0.419608 -0.529412 0.733333
-0.709804 0.545098 0.443137
-0.403922 -0.654902 0.639216
-0.584314 0.662745 0.474510
-0.686275 -0.184314 0.701961
-0.686275 0.192157 0.701961
-0.498039 -0.623529 0.600000
-0.552941 0.639216 0.529412
-0.803922 -0.247059 0.537255
-0.592157 0.184314 0.788235
-0.694118 -0.145098 0.701961
-0.623529 0.380392 0.686275
-0.592157 -0.435294 0.686275
-0.584314 0.600000 0.545098
-0.803922 -0.317647 0.505882
-0.560784 0.576471 0.592157
-0.984314 -0.090196 0.176471
-0.952941 0.200000 0.223529
-0.764706 -0.490196 0.411765
-0.482353 0.647059 0.600000
-0.756863 -0.474510 0.450980
-0.850980 0.333333 0.403922
-0.678431 -0.600000 0.427451
-0.741176 0.207843 0.639216
-0.600000 -0.670588 0.435294
-0.733333 0.341176 0.592157
-0.498039 -0.749020 0.435294
-0.756863 0.294118 0.576471
-0.278431 -0.850980 0.450980
-0.835294 0.254902 0.482353
-0.278431 -0.850980 0.450980
-0.866667 0.262745 0.427451
-0.239216 -0.882353 0.403922
-0.882353 0.309804 0.356863
-0.074510 -0.905882 0.427451
-0.921569 0.278431 0.262745
-0.011765 -0.882353 0.466667
-0.835294 0.505882 0.231373
-0.027451 -0.866667 0.490196
-0.717647 0.639216 0.270588
0.019608 -0.874510 0.490196
-0.607843 0.725490 0.325490
-0.584314 -0.231373 0.772549
-0.749020 0.411765 0.513726
-0.498039 -0.545098 0.678431
-0.639216 0.600000 0.482353
-0.427451 -0.678431 0.600000
-0.529412 0.670588 0.513726
-0.686275 -0.184314 0.701961
-0.686275 0.192157 0.701961
-0.458824 -0.662745 0.592157
-0.552941 0.639216 0.529412
-0.788235 -0.270588 0.552941
-0.607843 0.254902 0.749020
-0.694118 -0.145098 0.701961
-0.615686 0.380392 0.686275
-0.537255 -0.466667 0.709804
-0.513726 0.647059 0.560784
-0.796078 -0.356863 0.490196
-0.466667 0.647059 0.600000
-0.749020 -0.498039 0.443137
-0.835294 0.443137 0.317647
-0.686275 -0.560784 0.458824
-0.466667 0.647059 0.600000
-0.545098 -0.529412 0.647059
-0.866667 0.239216 0.435294
-0.584314 -0.607843 0.537255
-0.600000 0.184314 0.780392
-0.537255 -0.254902 0.803922
-0.811765 0.176471 0.552941
-0.498039 -0.717647 0.482353
-0.756863 0.364706 0.545098
-0.278431 -0.850980 0.450980
-0.819608 0.254902 0.513726
-0.207843 -0.796078 0.568627
-0.874510 0.239216 0.427451
-0.207843 -0.796078 0.568627
-0.874510 0.262745 0.396078
-0.113725 -0.811765 0.576471
-0.913725 0.239216 0.317647
-0.019608 -0.866667 0.498039
-0.882353 0.403922 0.239216
-0.019608 -0.866667 0.498039
-0.701961 0.678431 0.231373
0.082353 -0.858824 0.505882
-0.600000 0.756863 0.254902
-0.584314 -0.254902 0.764706
-0.694118 0.458824 0.552941
-0.552941 -0.388235 0.733333
-0.545098 0.631373 0.545098
-0.466667 -0.623529 0.623529
-0.552941 0.647059 0.521569
-0.694118 -0.129412 0.709804
-0.600000 0.349020 0.725490
-0.427451 -0.670588 0.607843
-0.521569 0.662745 0.537255
-0.756863 -0.231373 0.607843
-0.576471 0.349020 0.741176
-0.701961 -0.160784 0.694118
-0.615686 0.380392 0.694118
-0.466667 -0.521569 0.709804
-0.482353 0.670588 0.560784
-0.749020 -0.498039 0.443137
-0.819608 0.545098 0.160784
-0.686275 -0.403922 0.600000
-0.576471 0.247059 0.780392
-0.560784 -0.184314 0.803922
-0.458824 0.647059 0.607843
-0.529412 -0.615686 0.576471
-0.819608 0.490196 0.301961
-0.537255 -0.584314 0.607843
-0.458824 0.647059 0.607843
-0.254902 -0.694118 0.678431
-0.866667 0.113725 0.490196
-0.450980 -0.631373 0.631373
-0.521569 0.537255 0.662745
-0.435294 -0.325490 0.843137
-0.764706 0.325490 0.552941
-0.333333 -0.733333 0.600000
-0.819608 0.364706 0.443137
-0.207843 -0.780392 0.584314
-0.866667 0.231373 0.435294
-0.168627 -0.741176 0.647059
-0.874510 0.262745 0.396078
-0.200000 -0.733333 0.647059
-0.913725 0.270588 0.309804
-0.113725 -0.811765 0.576471
-0.905882 0.294118 0.301961
-0.019608 -0.866667 0.498039
-0.701961 0.678431 0.231373
0.019608 -0.858824 0.513726
-0.482353 0.811765 0.341176
-0.607843 -0.262745 0.749020
-0.600000 0.521569 0.607843
-0.576471 -0.388235 0.717647
-0.529412 0.600000 0.592157
-0.411765 -0.615686 0.670588
-0.513726 0.623529 0.592157
-0.349020 -0.678431 0.647059
-0.474510 0.647059 0.600000
-0.827451 -0.411765 0.388235
-0.819608 0.545098 0.160784
-0.647059 -0.333333 0.686275
-0.576471 0.349020 0.741176
-0.662745 -0.176471 0.733333
-0.607843 0.372549 0.701961
-0.349020 -0.678431 0.647059
-0.443137 0.694118 0.568627
-0.466667 -0.670588 0.576471
-0.772549 0.584314 0.247059
-0.576471 -0.364706 0.725490
-0.521569 0.356863 0.772549
-0.443137 -0.239216 0.858824
-0.443137 0.694118 0.568627
-0.200000 -0.678431 0.709804
-0.850980 0.388235 0.341176
-0.419608 -0.537255 0.733333
-0.435294 0.639216 0.639216
-0.043137 -0.701961 0.709804
-0.843137 0.254902 0.466667
-0.309804 -0.615686 0.717647
-0.505882 0.537255 0.670588
-0.262745 -0.482353 0.835294
-0.819608 0.356863 0.450980
-0.223529 -0.670588 0.709804
-0.890196 0.231373 0.396078
-0.168627 -0.741176 0.647059
-0.898039 0.239216 0.380392
-0.200000 -0.733333 0.647059
-0.905882 0.239216 0.356863
-0.200000 -0.733333 0.647059
-0.921569 0.223529 0.317647
-0.043137 -0.741176 0.670588
-0.741176 0.529412 0.411765
0.043137 -0.741176 0.670588
-0.482353 0.811765 0.341176
-0.631373 -0.254902 0.733333
-0.545098 0.521569 0.654902
-0.607843 -0.309804 0.725490
-0.450980 0.552941 0.701961
-0.458824 -0.545098 0.701961
-0.450980 0.576471 0.678431
-0.827451 -0.411765 0.380392
-0.835294 0.498039 0.223529
-0.341176 -0.662745 0.670588
-0.474510 0.639216 0.600000
-0.466667 -0.741176 0.490196
-0.772549 0.584314 0.247059
-0.600000 -0.137255 0.788235
-0.498039 0.239216 0.827451
-0.568627 -0.239216 0.788235
-0.490196 0.443137 0.749020
-0.341176 -0.662745 0.670588
-0.435294 0.678431 0.592157
-0.231373 -0.764706 0.607843
-0.788235 0.537255 0.294118
-0.498039 -0.380392 0.780392
-0.490196 0.317647 0.811765
-0.443137 -0.239216 0.858824
-0.458824 0.466667 0.749020
-0.364706 -0.443137 0.819608
-0.419608 0.670588 0.607843
0.043137 -0.788235 0.615686
-0.905882 0.129412 0.396078
-0.396078 -0.490196 0.780392
-0.474510 0.317647 0.819608
-0.333333 -0.247059 0.913725
-0.419608 0.662745 0.623529
0.011765 -0.733333 0.678431
-0.882353 0.286275 0.380392
-0.309804 -0.592157 0.741176
-0.349020 0.176471 0.921569
-0.317647 -0.066667 0.945098
-0.411765 0.545098 0.725490
-0.184314 -0.647059 0.741176
-0.898039 0.262745 0.349020
-0.223529 -0.662745 0.709804
-0.529412 0.207843 0.827451
-0.631373 -0.105882 0.764706
-0.898039 0.215686 0.380392
-0.192157 -0.678431 0.709804
-0.905882 0.239216 0.356863
-0.160784 -0.701961 0.694118
-0.905882 0.223529 0.356863
-0.090196 -0.717647 0.694118
-0.756863 0.498039 0.427451
0.043137 -0.741176 0.670588
-0.584314 0.647059 0.482353
-0.654902 -0.223529 0.725490
-0.490196 0.380392 0.780392
-0.521569 -0.403922 0.749020
-0.435294 0.482353 0.756863
-0.427451 -0.529412 0.733333
-0.458824 0.576471 0.678431
-0.521569 -0.686275 0.513726
-0.796078 0.513726 0.317647
-0.349020 -0.647059 0.678431
-0.458824 0.576471 0.678431
-0.223529 -0.835294 0.498039
-0.756863 0.600000 0.247059
-0.592157 -0.027451 0.803922
-0.560784 0.011765 0.827451
-0.435294 -0.239216 0.866667
-0.450980 0.317647 0.835294
-0.286275 -0.678431 0.678431
-0.435294 0.600000 0.670588
0.105882 -0.866667 0.482353
-0.890196 0.278431 0.364706
-0.427451 -0.317647 0.843137
-0.490196 0.270588 0.827451
-0.364706 -0.286275 0.882353
-0.403922 0.482353 0.780392
-0.333333 -0.639216 0.686275
-0.388235 0.670588 0.639216
0.215686 -0.811765 0.537255
-0.882353 0.270588 0.388235
-0.396078 -0.466667 0.788235
-0.443137 0.309804 0.835294
-0.278431 -0.317647 0.905882
-0.286275 0.490196 0.827451
-0.200000 -0.654902 0.725490
-0.341176 0.717647 0.607843
0.035294 -0.725490 0.686275
-0.874510 0.309804 0.372549
-0.341176 -0.592157 0.725490
-0.262745 0.435294 0.858824
-0.152941 -0.341176 0.929412
-0.215686 0.498039 0.843137
-0.137255 -0.490196 0.858824
-0.341176 0.717647 0.607843
-0.184314 -0.647059 0.741176
-0.905882 0.215686 0.356863
-0.223529 -0.662745 0.709804
-0.262745 0.427451 0.866667
-0.019608 -0.364706 0.929412
-0.388235 0.521569 0.756863
-0.647059 -0.121569 0.749020
-0.905882 0.231373 0.349020
-0.192157 -0.678431 0.709804
-0.082353 0.396078 0.913725
0.090196 -0.411765 0.905882
-0.905882 0.223529 0.356863
-0.011765 -0.654902 0.756863
-0.145098 0.450980 0.882353
0.160784 -0.537255 0.827451
-0.858824 0.309804 0.403922
0.098039 -0.670588 0.733333
-0.027451 0.474510 0.882353
0.160784 -0.537255 0.827451
-0.592157 0.647059 0.482353
-0.623529 -0.254902 0.741176
-0.529412 0.223529 0.819608
-0.545098 -0.380392 0.749020
-0.403922 0.411765 0.819608
-0.662745 -0.600000 0.458824
-0.827451 0.364706 0.435294
-0.419608 -0.529412 0.733333
-0.435294 0.474510 0.764706
-0.168627 -0.874510 0.450980
-0.749020 0.560784 0.349020
-0.301961 -0.670588 0.670588
-0.372549 0.427451 0.827451
0.113725 -0.913725 0.380392
-0.827451 0.466667 0.309804
-0.215686 -0.694118 0.686275
-0.427451 0.529412 0.733333
0.341176 -0.874510 0.356863
-0.921569 0.129412 0.372549
-0.427451 -0.309804 0.843137
-0.458824 0.239216 0.858824
-0.356863 -0.325490 0.874510
-0.286275 0.443137 0.850980
-0.215686 -0.694118 0.686275
-0.356863 0.686275 0.639216
0.325490 -0.882353 0.341176
-0.882353 0.294118 0.372549
-0.380392 -0.396078 0.835294
-0.388235 0.333333 0.858824
-0.294118 -0.349020 0.890196
-0.247059 0.435294 0.866667
-0.160784 -0.647059 0.749020
-0.396078 0.725490 0.568627
0.192157 -0.866667 0.458824
-0.890196 0.270588 0.356863
-0.207843 -0.552941 0.803922
-0.294118 0.396078 0.874510
-0.137255 -0.419608 0.898039
-0.239216 0.427451 0.874510
-0.090196 -0.615686 0.780392
-0.278431 0.709804 0.647059
-0.388235 -0.639216 0.670588
-0.905882 0.215686 0.364706
-0.152941 -0.568627 0.803922
-0.286275 0.443137 0.850980
-0.090196 -0.419608 0.905882
-0.082353 0.505882 0.858824
-0.003922 -0.600000 0.796078
-0.294118 0.647059 0.701961
-0.749020 -0.192157 0.639216
-0.898039 0.239216 0.372549
-0.027451 -0.631373 0.772549
-0.176471 0.482353 0.858824
0.019608 -0.482353 0.874510
-0.082353 0.505882 0.858824
-0.058824 -0.654902 0.749020
-0.152941 0.615686 0.772549
-0.341176 -0.372549 0.858824
-0.890196 0.231373 0.396078
0.050980 -0.600000 0.803922
